27.000000, -25.000000, 8.121149
27.000000, -24.500000, 7.96512
27.000000, -24.000000, 7.81254
27.000000, -23.500000, 7.663388
27.000000, -23.000000, 7.517646
27.000000, -22.500000, 7.375295
27.000000, -22.000000, 7.236316
27.000000, -21.500000, 7.100693
27.000000, -21.000000, 6.968408
27.000000, -20.500000, 6.839445
27.000000, -20.000000, 6.713788
27.000000, -19.500000, 6.591421
27.000000, -19.000000, 6.47233
27.000000, -18.500000, 6.3565
27.000000, -18.000000, 6.243917
27.000000, -17.500000, 6.134567
27.000000, -17.000000, 6.028438
27.000000, -16.500000, 5.925517
27.000000, -16.000000, 5.825792
27.000000, -15.500000, 5.729251
27.000000, -15.000000, 5.635883
27.000000, -14.500000, 5.545677
27.000000, -14.000000, 5.458623
27.000000, -13.500000, 5.374709
27.000000, -13.000000, 5.293928
27.000000, -12.500000, 5.216269
27.000000, -12.000000, 5.141725
27.000000, -11.500000, 5.070285
27.000000, -11.000000, 5.001943
27.000000, -10.500000, 4.93669
27.000000, -10.000000, 4.874519
27.000000, -9.500000, 4.815423
27.000000, -9.000000, 4.759397
27.000000, -8.500000, 4.706432
27.000000, -8.000000, 4.656524
27.000000, -7.500000, 4.609667
27.000000, -7.000000, 4.565856
27.000000, -6.500000, 4.525086
27.000000, -6.000000, 4.487352
27.000000, -5.500000, 4.452651
27.000000, -5.000000, 4.420978
27.000000, -4.500000, 4.39233
27.000000, -4.000000, 4.366704
27.000000, -3.500000, 4.344097
27.000000, -3.000000, 4.324507
27.000000, -2.500000, 4.307931
27.000000, -2.000000, 4.294368
27.000000, -1.500000, 4.283816
27.000000, -1.000000, 4.276275
27.000000, -0.500000, 4.271742
27.000000, 0.000000, 4.270219
27.000000, 0.500000, 4.271704
27.000000, 1.000000, 4.276198
27.000000, 1.500000, 4.283701
27.000000, 2.000000, 4.294214
27.000000, 2.500000, 4.307738
27.000000, 3.000000, 4.324275
27.000000, 3.500000, 4.343827
27.000000, 4.000000, 4.366395
27.000000, 4.500000, 4.391982
27.000000, 5.000000, 4.420592
27.000000, 5.500000, 4.452226
27.000000, 6.000000, 4.486888
27.000000, 6.500000, 4.524583
27.000000, 7.000000, 4.565315
27.000000, 7.500000, 4.609087
27.000000, 8.000000, 4.655905
27.000000, 8.500000, 4.705774
27.000000, 9.000000, 4.758699
27.000000, 9.500000, 4.814687
27.000000, 10.000000, 4.873743
27.000000, 10.500000, 4.935874
27.000000, 11.000000, 5.001087
27.000000, 11.500000, 5.06939
27.000000, 12.000000, 5.14079
27.000000, 12.500000, 5.215295
27.000000, 13.000000, 5.292914
27.000000, 13.500000, 5.373655
27.000000, 14.000000, 5.457528
27.000000, 14.500000, 5.544542
27.000000, 15.000000, 5.634708
27.000000, 15.500000, 5.728036
27.000000, 16.000000, 5.824536
27.000000, 16.500000, 5.92422
27.000000, 17.000000, 6.0271
27.000000, 17.500000, 6.133188
27.000000, 18.000000, 6.242496
27.000000, 18.500000, 6.355037
27.000000, 19.000000, 6.470826
27.000000, 19.500000, 6.589875
27.000000, 20.000000, 6.7122
27.000000, 20.500000, 6.837815
27.000000, 21.000000, 6.966736
27.000000, 21.500000, 7.098978
27.000000, 22.000000, 7.234558
27.000000, 22.500000, 7.373494
27.000000, 23.000000, 7.515802
27.000000, 23.500000, 7.6615
27.000000, 24.000000, 7.810608
27.000000, 24.500000, 7.963144
27.000000, 25.000000, 8.119129
27.000000, 25.500000, 8.278582
27.000000, 26.000000, 8.441524
27.000000, 26.500000, 8.607978
27.000000, 27.000000, 8.777966
27.000000, 27.500000, 8.951511
27.000000, 28.000000, 9.128635
27.000000, 28.500000, 9.309365
27.000000, 29.000000, 9.493724
27.000000, 29.500000, 9.681738
27.000000, 30.000000, 9.873435
27.000000, 30.500000, 10.068842
27.000000, 31.000000, 10.267986
27.000000, 31.500000, 10.470897
27.000000, 32.000000, 10.677605
27.000000, 32.500000, 10.88814
27.000000, 33.000000, 11.102535
27.000000, 33.500000, 11.320822
27.000000, 34.000000, 11.543034
27.000000, 34.500000, 11.769206
27.000000, 35.000000, 11.999374
27.000000, 35.500000, 12.233574
27.000000, 36.000000, 12.471845
27.000000, 36.500000, 12.714225
27.000000, 37.000000, 12.960754
27.000000, 37.500000, 13.211475
27.000000, 38.000000, 13.466428
27.000000, 38.500000, 13.72566
27.000000, 39.000000, 13.989214
27.000000, 39.500000, 14.257137
27.000000, 40.000000, 14.529479
27.000000, 40.500000, 14.806287
27.000000, 41.000000, 15.087615
27.000000, 41.500000, 15.373515
27.000000, 42.000000, 15.664041
27.000000, 42.500000, 15.959249
27.500000, -42.500000, 16.153985
27.500000, -42.000000, 15.857928
27.500000, -41.500000, 15.566573
27.500000, -41.000000, 15.279863
27.500000, -40.500000, 14.997744
27.500000, -40.000000, 14.720161
27.500000, -39.500000, 14.447064
27.500000, -39.000000, 14.178401
27.500000, -38.500000, 13.914125
27.500000, -38.000000, 13.654187
27.500000, -37.500000, 13.398543
27.500000, -37.000000, 13.147148
27.500000, -36.500000, 12.899958
27.500000, -36.000000, 12.656933
27.500000, -35.500000, 12.418031
27.500000, -35.000000, 12.183213
27.500000, -34.500000, 11.952442
27.500000, -34.000000, 11.725679
27.500000, -33.500000, 11.50289
27.500000, -33.000000, 11.284039
27.500000, -32.500000, 11.069093
27.500000, -32.000000, 10.858017
27.500000, -31.500000, 10.650782
27.500000, -31.000000, 10.447354
27.500000, -30.500000, 10.247705
27.500000, -30.000000, 10.051805
27.500000, -29.500000, 9.859626
27.500000, -29.000000, 9.67114
27.500000, -28.500000, 9.486319
27.500000, -28.000000, 9.305139
27.500000, -27.500000, 9.127574
27.500000, -27.000000, 8.953599
27.500000, -26.500000, 8.783191
27.500000, -26.000000, 8.616326
27.500000, -25.500000, 8.452982
27.500000, -25.000000, 8.293136
27.500000, -24.500000, 8.136769
27.500000, -24.000000, 7.983859
27.500000, -23.500000, 7.834386
27.500000, -23.000000, 7.688331
27.500000, -22.500000, 7.545675
27.500000, -22.000000, 7.406401
27.500000, -21.500000, 7.27049
27.500000, -21.000000, 7.137925
27.500000, -20.500000, 7.008689
27.500000, -20.000000, 6.882768
27.500000, -19.500000, 6.760145
27.500000, -19.000000, 6.640805
27.500000, -18.500000, 6.524733
27.500000, -18.000000, 6.411916
27.500000, -17.500000, 6.30234
27.500000, -17.000000, 6.195992
27.500000, -16.500000, 6.092859
27.500000, -16.000000, 5.992928
27.500000, -15.500000, 5.896189
27.500000, -15.000000, 5.80263
27.500000, -14.500000, 5.71224
27.500000, -14.000000, 5.625008
27.500000, -13.500000, 5.540924
27.500000, -13.000000, 5.459979
27.500000, -12.500000, 5.382163
27.500000, -12.000000, 5.307467
27.500000, -11.500000, 5.235883
27.500000, -11.000000, 5.167403
27.500000, -10.500000, 5.102019
27.500000, -10.000000, 5.039724
27.500000, -9.500000, 4.98051
27.500000, -9.000000, 4.924371
27.500000, -8.500000, 4.8713
27.500000, -8.000000, 4.821293
27.500000, -7.500000, 4.774342
27.500000, -7.000000, 4.730444
27.500000, -6.500000, 4.689592
27.500000, -6.000000, 4.651783
27.500000, -5.500000, 4.617013
27.500000, -5.000000, 4.585277
27.500000, -4.500000, 4.556573
27.500000, -4.000000, 4.530896
27.500000, -3.500000, 4.508244
27.500000, -3.000000, 4.488615
27.500000, -2.500000, 4.472007
27.500000, -2.000000, 4.458417
27.500000, -1.500000, 4.447844
27.500000, -1.000000, 4.440288
27.500000, -0.500000, 4.435746
27.500000, 0.000000, 4.43422
27.500000, 0.500000, 4.435708
27.500000, 1.000000, 4.44021
27.500000, 1.500000, 4.447728
27.500000, 2.000000, 4.458262
27.500000, 2.500000, 4.471813
27.500000, 3.000000, 4.488383
27.500000, 3.500000, 4.507974
27.500000, 4.000000, 4.530587
27.500000, 4.500000, 4.556225
27.500000, 5.000000, 4.58489
27.500000, 5.500000, 4.616587
27.500000, 6.000000, 4.651319
27.500000, 6.500000, 4.689089
27.500000, 7.000000, 4.729901
27.500000, 7.500000, 4.773761
27.500000, 8.000000, 4.820672
27.500000, 8.500000, 4.87064
27.500000, 9.000000, 4.923672
27.500000, 9.500000, 4.979771
27.500000, 10.000000, 5.038946
27.500000, 10.500000, 5.101202
27.500000, 11.000000, 5.166546
27.500000, 11.500000, 5.234987
27.500000, 12.000000, 5.306531
27.500000, 12.500000, 5.381186
27.500000, 13.000000, 5.458962
27.500000, 13.500000, 5.539867
27.500000, 14.000000, 5.623911
27.500000, 14.500000, 5.711103
27.500000, 15.000000, 5.801452
27.500000, 15.500000, 5.894971
27.500000, 16.000000, 5.991669
27.500000, 16.500000, 6.091558
27.500000, 17.000000, 6.19465
27.500000, 17.500000, 6.300957
27.500000, 18.000000, 6.410492
27.500000, 18.500000, 6.523268
27.500000, 19.000000, 6.639297
27.500000, 19.500000, 6.758596
27.500000, 20.000000, 6.881177
27.500000, 20.500000, 7.007056
27.500000, 21.000000, 7.136248
27.500000, 21.500000, 7.268771
27.500000, 22.000000, 7.404639
27.500000, 22.500000, 7.54387
27.500000, 23.000000, 7.686482
27.500000, 23.500000, 7.832494
27.500000, 24.000000, 7.981923
27.500000, 24.500000, 8.134789
27.500000, 25.000000, 8.291112
27.500000, 25.500000, 8.450912
27.500000, 26.000000, 8.614212
27.500000, 26.500000, 8.781032
27.500000, 27.000000, 8.951394
27.500000, 27.500000, 9.125323
27.500000, 28.000000, 9.302842
27.500000, 28.500000, 9.483976
27.500000, 29.000000, 9.668749
27.500000, 29.500000, 9.857189
27.500000, 30.000000, 10.049321
27.500000, 30.500000, 10.245173
27.500000, 31.000000, 10.444773
27.500000, 31.500000, 10.648152
27.500000, 32.000000, 10.855339
27.500000, 32.500000, 11.066365
27.500000, 33.000000, 11.281262
27.500000, 33.500000, 11.500062
27.500000, 34.000000, 11.722801
27.500000, 34.500000, 11.949512
27.500000, 35.000000, 12.180232
27.500000, 35.500000, 12.414998
27.500000, 36.000000, 12.653847
27.500000, 36.500000, 12.896819
27.500000, 37.000000, 13.143955
27.500000, 37.500000, 13.395297
27.500000, 38.000000, 13.650886
27.500000, 38.500000, 13.910768
27.500000, 39.000000, 14.174989
27.500000, 39.500000, 14.443595
27.500000, 40.000000, 14.716635
27.500000, 40.500000, 14.99416
27.500000, 41.000000, 15.276221
27.500000, 41.500000, 15.562871
27.500000, 42.000000, 15.854167
27.500000, 42.500000, 16.150164
28.000000, -42.500000, 16.348943
28.000000, -42.000000, 16.052076
28.000000, -41.500000, 15.759931
28.000000, -41.000000, 15.472451
28.000000, -40.500000, 15.189579
28.000000, -40.000000, 14.911261
28.000000, -39.500000, 14.637446
28.000000, -39.000000, 14.368083
28.000000, -38.500000, 14.103122
28.000000, -38.000000, 13.842516
28.000000, -37.500000, 13.58622
28.000000, -37.000000, 13.334187
28.000000, -36.500000, 13.086375
28.000000, -36.000000, 12.842742
28.000000, -35.500000, 12.603246
28.000000, -35.000000, 12.367849
28.000000, -34.500000, 12.136511
28.000000, -34.000000, 11.909195
28.000000, -33.500000, 11.685866
28.000000, -33.000000, 11.466487
28.000000, -32.500000, 11.251025
28.000000, -32.000000, 11.039447
28.000000, -31.500000, 10.83172
28.000000, -31.000000, 10.627813
28.000000, -30.500000, 10.427695
28.000000, -30.000000, 10.231338
28.000000, -29.500000, 10.038713
28.000000, -29.000000, 9.849791
28.000000, -28.500000, 9.664546
28.000000, -28.000000, 9.482951
28.000000, -27.500000, 9.304982
28.000000, -27.000000, 9.130612
28.000000, -26.500000, 8.959819
28.000000, -26.000000, 8.792579
28.000000, -25.500000, 8.628869
28.000000, -25.000000, 8.468667
28.000000, -24.500000, 8.311953
28.000000, -24.000000, 8.158704
28.000000, -23.500000, 8.008902
28.000000, -23.000000, 7.862527
28.000000, -22.500000, 7.719559
28.000000, -22.000000, 7.579981
28.000000, -21.500000, 7.443775
28.000000, -21.000000, 7.310923
28.000000, -20.500000, 7.181409
28.000000, -20.000000, 7.055216
28.000000, -19.500000, 6.93233
28.000000, -19.000000, 6.812735
28.000000, -18.500000, 6.696416
28.000000, -18.000000, 6.583359
28.000000, -17.500000, 6.473551
28.000000, -17.000000, 6.366978
28.000000, -16.500000, 6.263627
28.000000, -16.000000, 6.163487
28.000000, -15.500000, 6.066545
28.000000, -15.000000, 5.97279
28.000000, -14.500000, 5.882211
28.000000, -14.000000, 5.794797
28.000000, -13.500000, 5.710539
28.000000, -13.000000, 5.629425
28.000000, -12.500000, 5.551448
28.000000, -12.000000, 5.476598
28.000000, -11.500000, 5.404867
28.000000, -11.000000, 5.336246
28.000000, -10.500000, 5.270727
28.000000, -10.000000, 5.208303
28.000000, -9.500000, 5.148968
28.000000, -9.000000, 5.092714
28.000000, -8.500000, 5.039535
28.000000, -8.000000, 4.989425
28.000000, -7.500000, 4.942379
28.000000, -7.000000, 4.898391
28.000000, -6.500000, 4.857457
28.000000, -6.000000, 4.819571
28.000000, -5.500000, 4.78473
28.000000, -5.000000, 4.75293
28.000000, -4.500000, 4.724167
28.000000, -4.000000, 4.698438
28.000000, -3.500000, 4.67574
28.000000, -3.000000, 4.656072
28.000000, -2.500000, 4.63943
28.000000, -2.000000, 4.625812
28.000000, -1.500000, 4.615218
28.000000, -1.000000, 4.607646
28.000000, -0.500000, 4.603096
28.000000, 0.000000, 4.601566
28.000000, 0.500000, 4.603057
28.000000, 1.000000, 4.607569
28.000000, 1.500000, 4.615102
28.000000, 2.000000, 4.625657
28.000000, 2.500000, 4.639236
28.000000, 3.000000, 4.655839
28.000000, 3.500000, 4.675469
28.000000, 4.000000, 4.698128
28.000000, 4.500000, 4.723818
28.000000, 5.000000, 4.752542
28.000000, 5.500000, 4.784303
28.000000, 6.000000, 4.819106
28.000000, 6.500000, 4.856952
28.000000, 7.000000, 4.897848
28.000000, 7.500000, 4.941797
28.000000, 8.000000, 4.988804
28.000000, 8.500000, 5.038874
28.000000, 9.000000, 5.092014
28.000000, 9.500000, 5.148228
28.000000, 10.000000, 5.207524
28.000000, 10.500000, 5.269908
28.000000, 11.000000, 5.335387
28.000000, 11.500000, 5.403968
28.000000, 12.000000, 5.47566
28.000000, 12.500000, 5.55047
28.000000, 13.000000, 5.628407
28.000000, 13.500000, 5.70948
28.000000, 14.000000, 5.793698
28.000000, 14.500000, 5.881071
28.000000, 15.000000, 5.97161
28.000000, 15.500000, 6.065324
28.000000, 16.000000, 6.162225
28.000000, 16.500000, 6.262325
28.000000, 17.000000, 6.365634
28.000000, 17.500000, 6.472166
28.000000, 18.000000, 6.581932
28.000000, 18.500000, 6.694947
28.000000, 19.000000, 6.811225
28.000000, 19.500000, 6.930778
28.000000, 20.000000, 7.053622
28.000000, 20.500000, 7.179772
28.000000, 21.000000, 7.309243
28.000000, 21.500000, 7.442052
28.000000, 22.000000, 7.578215
28.000000, 22.500000, 7.71775
28.000000, 23.000000, 7.860674
28.000000, 23.500000, 8.007006
28.000000, 24.000000, 8.156764
28.000000, 24.500000, 8.309968
28.000000, 25.000000, 8.466638
28.000000, 25.500000, 8.626795
28.000000, 26.000000, 8.79046
28.000000, 26.500000, 8.957655
28.000000, 27.000000, 9.128402
28.000000, 27.500000, 9.302726
28.000000, 28.000000, 9.480649
28.000000, 28.500000, 9.662197
28.000000, 29.000000, 9.847395
28.000000, 29.500000, 10.03627
28.000000, 30.000000, 10.228848
28.000000, 30.500000, 10.425157
28.000000, 31.000000, 10.625226
28.000000, 31.500000, 10.829084
28.000000, 32.000000, 11.036762
28.000000, 32.500000, 11.248291
28.000000, 33.000000, 11.463703
28.000000, 33.500000, 11.683031
28.000000, 34.000000, 11.90631
28.000000, 34.500000, 12.133574
28.000000, 35.000000, 12.36486
28.000000, 35.500000, 12.600205
28.000000, 36.000000, 12.839648
28.000000, 36.500000, 13.083228
28.000000, 37.000000, 13.330987
28.000000, 37.500000, 13.582965
28.000000, 38.000000, 13.839207
28.000000, 38.500000, 14.099757
28.000000, 39.000000, 14.364662
28.000000, 39.500000, 14.633968
28.000000, 40.000000, 14.907726
28.000000, 40.500000, 15.185985
28.000000, 41.000000, 15.468799
28.000000, 41.500000, 15.75622
28.000000, 42.000000, 16.048305
28.000000, 42.500000, 16.345111
28.500000, -42.500000, 16.547968
28.500000, -42.000000, 16.25027
28.500000, -41.500000, 15.957314
28.500000, -41.000000, 15.669042
28.500000, -40.500000, 15.385398
28.500000, -40.000000, 15.106326
28.500000, -39.500000, 14.831775
28.500000, -39.000000, 14.561692
28.500000, -38.500000, 14.29603
28.500000, -38.000000, 14.034738
28.500000, -37.500000, 13.777772
28.500000, -37.000000, 13.525086
28.500000, -36.500000, 13.276635
28.500000, -36.000000, 13.032378
28.500000, -35.500000, 12.792273
28.500000, -35.000000, 12.556281
28.500000, -34.500000, 12.324362
28.500000, -34.000000, 12.09648
28.500000, -33.500000, 11.872596
28.500000, -33.000000, 11.652676
28.500000, -32.500000, 11.436686
28.500000, -32.000000, 11.224592
28.500000, -31.500000, 11.016361
28.500000, -31.000000, 10.811962
28.500000, -30.500000, 10.611365
28.500000, -30.000000, 10.414539
28.500000, -29.500000, 10.221456
28.500000, -29.000000, 10.032088
28.500000, -28.500000, 9.846407
28.500000, -28.000000, 9.664387
28.500000, -27.500000, 9.486003
28.500000, -27.000000, 9.311229
28.500000, -26.500000, 9.140042
28.500000, -26.000000, 8.972417
28.500000, -25.500000, 8.808333
28.500000, -25.000000, 8.647766
28.500000, -24.500000, 8.490695
28.500000, -24.000000, 8.3371
28.500000, -23.500000, 8.186961
28.500000, -23.000000, 8.040257
28.500000, -22.500000, 7.896969
28.500000, -22.000000, 7.75708
28.500000, -21.500000, 7.620571
28.500000, -21.000000, 7.487425
28.500000, -20.500000, 7.357625
28.500000, -20.000000, 7.231156
28.500000, -19.500000, 7.108
28.500000, -19.000000, 6.988143
28.500000, -18.500000, 6.871571
28.500000, -18.000000, 6.758269
28.500000, -17.500000, 6.648222
28.500000, -17.000000, 6.541419
28.500000, -16.500000, 6.437846
28.500000, -16.000000, 6.33749
28.500000, -15.500000, 6.24034
28.500000, -15.000000, 6.146385
28.500000, -14.500000, 6.055612
28.500000, -14.000000, 5.968012
28.500000, -13.500000, 5.883574
28.500000, -13.000000, 5.802289
28.500000, -12.500000, 5.724147
28.500000, -12.000000, 5.649139
28.500000, -11.500000, 5.577256
28.500000, -11.000000, 5.50849
28.500000, -10.500000, 5.442834
28.500000, -10.000000, 5.380279
28.500000, -9.500000, 5.320819
28.500000, -9.000000, 5.264448
28.500000, -8.500000, 5.211158
28.500000, -8.000000, 5.160943
28.500000, -7.500000, 5.113799
28.500000, -7.000000, 5.069719
28.500000, -6.500000, 5.0287
28.500000, -6.000000, 4.990735
28.500000, -5.500000, 4.955822
28.500000, -5.000000, 4.923955
28.500000, -4.500000, 4.895133
28.500000, -4.000000, 4.869351
28.500000, -3.500000, 4.846606
28.500000, -3.000000, 4.826897
28.500000, -2.500000, 4.81022
28.500000, -2.000000, 4.796575
28.500000, -1.500000, 4.785959
28.500000, -1.000000, 4.778371
28.500000, -0.500000, 4.773811
28.500000, 0.000000, 4.772279
28.500000, 0.500000, 4.773773
28.500000, 1.000000, 4.778294
28.500000, 1.500000, 4.785842
28.500000, 2.000000, 4.79642
28.500000, 2.500000, 4.810026
28.500000, 3.000000, 4.826664
28.500000, 3.500000, 4.846335
28.500000, 4.000000, 4.86904
28.500000, 4.500000, 4.894783
28.500000, 5.000000, 4.923567
28.500000, 5.500000, 4.955394
28.500000, 6.000000, 4.990269
28.500000, 6.500000, 5.028194
28.500000, 7.000000, 5.069175
28.500000, 7.500000, 5.113215
28.500000, 8.000000, 5.16032
28.500000, 8.500000, 5.210495
28.500000, 9.000000, 5.263746
28.500000, 9.500000, 5.320078
28.500000, 10.000000, 5.379498
28.500000, 10.500000, 5.442013
28.500000, 11.000000, 5.50763
28.500000, 11.500000, 5.576355
28.500000, 12.000000, 5.648198
28.500000, 12.500000, 5.723166
28.500000, 13.000000, 5.801268
28.500000, 13.500000, 5.882513
28.500000, 14.000000, 5.966911
28.500000, 14.500000, 6.05447
28.500000, 15.000000, 6.145202
28.500000, 15.500000, 6.239117
28.500000, 16.000000, 6.336226
28.500000, 16.500000, 6.43654
28.500000, 17.000000, 6.540072
28.500000, 17.500000, 6.646834
28.500000, 18.000000, 6.756839
28.500000, 18.500000, 6.870099
28.500000, 19.000000, 6.98663
28.500000, 19.500000, 7.106444
28.500000, 20.000000, 7.229557
28.500000, 20.500000, 7.355985
28.500000, 21.000000, 7.485742
28.500000, 21.500000, 7.618845
28.500000, 22.000000, 7.75531
28.500000, 22.500000, 7.895156
28.500000, 23.000000, 8.0384
28.500000, 23.500000, 8.18506
28.500000, 24.000000, 8.335156
28.500000, 24.500000, 8.488706
28.500000, 25.000000, 8.645732
28.500000, 25.500000, 8.806254
28.500000, 26.000000, 8.970293
28.500000, 26.500000, 9.137873
28.500000, 27.000000, 9.309014
28.500000, 27.500000, 9.483742
28.500000, 28.000000, 9.66208
28.500000, 28.500000, 9.844053
28.500000, 29.000000, 10.029687
28.500000, 29.500000, 10.219007
28.500000, 30.000000, 10.412043
28.500000, 30.500000, 10.60882
28.500000, 31.000000, 10.809369
28.500000, 31.500000, 11.013719
28.500000, 32.000000, 11.221901
28.500000, 32.500000, 11.433945
28.500000, 33.000000, 11.649885
28.500000, 33.500000, 11.869754
28.500000, 34.000000, 12.093587
28.500000, 34.500000, 12.321418
28.500000, 35.000000, 12.553285
28.500000, 35.500000, 12.789225
28.500000, 36.000000, 13.029277
28.500000, 36.500000, 13.27348
28.500000, 37.000000, 13.521877
28.500000, 37.500000, 13.774509
28.500000, 38.000000, 14.03142
28.500000, 38.500000, 14.292656
28.500000, 39.000000, 14.558262
28.500000, 39.500000, 14.828287
28.500000, 40.000000, 15.102781
28.500000, 40.500000, 15.381795
28.500000, 41.000000, 15.66538
28.500000, 41.500000, 15.953593
28.500000, 42.000000, 16.246488
28.500000, 42.500000, 16.544125
29.000000, -42.500000, 16.751094
29.000000, -42.000000, 16.452544
29.000000, -41.500000, 16.158755
29.000000, -41.000000, 15.869671
29.000000, -40.500000, 15.585234
29.000000, -40.000000, 15.305388
29.000000, -39.500000, 15.030081
29.000000, -39.000000, 14.759261
29.000000, -38.500000, 14.492878
29.000000, -38.000000, 14.230884
29.000000, -37.500000, 13.973231
29.000000, -37.000000, 13.719873
29.000000, -36.500000, 13.470768
29.000000, -36.000000, 13.225871
29.000000, -35.500000, 12.985142
29.000000, -35.000000, 12.74854
29.000000, -34.500000, 12.516025
29.000000, -34.000000, 12.287561
29.000000, -33.500000, 12.063109
29.000000, -33.000000, 11.842635
29.000000, -32.500000, 11.626103
29.000000, -32.000000, 11.41348
29.000000, -31.500000, 11.204732
29.000000, -31.000000, 10.999829
29.000000, -30.500000, 10.79874
29.000000, -30.000000, 10.601434
29.000000, -29.500000, 10.407882
29.000000, -29.000000, 10.218056
29.000000, -28.500000, 10.031929
29.000000, -28.000000, 9.849473
29.000000, -27.500000, 9.670664
29.000000, -27.000000, 9.495476
29.000000, -26.500000, 9.323884
29.000000, -26.000000, 9.155866
29.000000, -25.500000, 8.991397
29.000000, -25.000000, 8.830456
29.000000, -24.500000, 8.673021
29.000000, -24.000000, 8.51907
29.000000, -23.500000, 8.368585
29.000000, -23.000000, 8.221544
29.000000, -22.500000, 8.077929
29.000000, -22.000000, 7.937721
29.000000, -21.500000, 7.800902
29.000000, -21.000000, 7.667455
29.000000, -20.500000, 7.537363
29.000000, -20.000000, 7.410609
29.000000, -19.500000, 7.287177
29.000000, -19.000000, 7.167053
29.000000, -18.500000, 7.050221
29.000000, -18.000000, 6.936667
29.000000, -17.500000, 6.826377
29.000000, -17.000000, 6.719337
29.000000, -16.500000, 6.615536
29.000000, -16.000000, 6.51496
29.000000, -15.500000, 6.417597
29.000000, -15.000000, 6.323436
29.000000, -14.500000, 6.232465
29.000000, -14.000000, 6.144674
29.000000, -13.500000, 6.060053
29.000000, -13.000000, 5.978591
29.000000, -12.500000, 5.90028
29.000000, -12.000000, 5.82511
29.000000, -11.500000, 5.753072
29.000000, -11.000000, 5.684158
29.000000, -10.500000, 5.618361
29.000000, -10.000000, 5.555672
29.000000, -9.500000, 5.496085
29.000000, -9.000000, 5.439593
29.000000, -8.500000, 5.386189
29.000000, -8.000000, 5.335867
29.000000, -7.500000, 5.288622
29.000000, -7.000000, 5.244449
29.000000, -6.500000, 5.203342
29.000000, -6.000000, 5.165297
29.000000, -5.500000, 5.130309
29.000000, -5.000000, 5.098376
29.000000, -4.500000, 5.069492
29.000000, -4.000000, 5.043655
29.000000, -3.500000, 5.020862
29.000000, -3.000000, 5.001111
29.000000, -2.500000, 4.984399
29.000000, -2.000000, 4.970725
29.000000, -1.500000, 4.960087
29.000000, -1.000000, 4.952483
29.000000, -0.500000, 4.947914
29.000000, 0.000000, 4.946378
29.000000, 0.500000, 4.947875
29.000000, 1.000000, 4.952406
29.000000, 1.500000, 4.95997
29.000000, 2.000000, 4.97057
29.000000, 2.500000, 4.984205
29.000000, 3.000000, 5.000878
29.000000, 3.500000, 5.02059
29.000000, 4.000000, 5.043344
29.000000, 4.500000, 5.069142
29.000000, 5.000000, 5.097986
29.000000, 5.500000, 5.129881
29.000000, 6.000000, 5.16483
29.000000, 6.500000, 5.202835
29.000000, 7.000000, 5.243903
29.000000, 7.500000, 5.288037
29.000000, 8.000000, 5.335243
29.000000, 8.500000, 5.385525
29.000000, 9.000000, 5.438889
29.000000, 9.500000, 5.495342
29.000000, 10.000000, 5.554889
29.000000, 10.500000, 5.617538
29.000000, 11.000000, 5.683296
29.000000, 11.500000, 5.75217
29.000000, 12.000000, 5.824167
29.000000, 12.500000, 5.899298
29.000000, 13.000000, 5.977569
29.000000, 13.500000, 6.05899
29.000000, 14.000000, 6.14357
29.000000, 14.500000, 6.23132
29.000000, 15.000000, 6.32225
29.000000, 15.500000, 6.41637
29.000000, 16.000000, 6.513692
29.000000, 16.500000, 6.614227
29.000000, 17.000000, 6.717987
29.000000, 17.500000, 6.824985
29.000000, 18.000000, 6.935233
29.000000, 18.500000, 7.048746
29.000000, 19.000000, 7.165536
29.000000, 19.500000, 7.285618
29.000000, 20.000000, 7.409007
29.000000, 20.500000, 7.535718
29.000000, 21.000000, 7.665768
29.000000, 21.500000, 7.799172
29.000000, 22.000000, 7.935948
29.000000, 22.500000, 8.076112
29.000000, 23.000000, 8.219683
29.000000, 23.500000, 8.36668
29.000000, 24.000000, 8.517121
29.000000, 24.500000, 8.671027
29.000000, 25.000000, 8.828417
29.000000, 25.500000, 8.989313
29.000000, 26.000000, 9.153737
29.000000, 26.500000, 9.32171
29.000000, 27.000000, 9.493256
29.000000, 27.500000, 9.668398
29.000000, 28.000000, 9.84716
29.000000, 28.500000, 10.029569
29.000000, 29.000000, 10.215649
29.000000, 29.500000, 10.405427
29.000000, 30.000000, 10.598931
29.000000, 30.500000, 10.796189
29.000000, 31.000000, 10.99723
29.000000, 31.500000, 11.202084
29.000000, 32.000000, 11.410782
29.000000, 32.500000, 11.623355
29.000000, 33.000000, 11.839837
29.000000, 33.500000, 12.06026
29.000000, 34.000000, 12.284661
29.000000, 34.500000, 12.513074
29.000000, 35.000000, 12.745536
29.000000, 35.500000, 12.982086
29.000000, 36.000000, 13.222762
29.000000, 36.500000, 13.467605
29.000000, 37.000000, 13.716656
29.000000, 37.500000, 13.969959
29.000000, 38.000000, 14.227556
29.000000, 38.500000, 14.489495
29.000000, 39.000000, 14.755821
29.000000, 39.500000, 15.026584
29.000000, 40.000000, 15.301833
29.000000, 40.500000, 15.581621
29.000000, 41.000000, 15.865999
29.000000, 41.500000, 16.155023
29.000000, 42.000000, 16.448751
29.000000, 42.500000, 16.74724
29.500000, -42.500000, 16.958357
29.500000, -42.000000, 16.658931
29.500000, -41.500000, 16.364289
29.500000, -41.000000, 16.074371
29.500000, -40.500000, 15.78912
29.500000, -40.000000, 15.508481
29.500000, -39.500000, 15.232398
29.500000, -39.000000, 14.960822
29.500000, -38.500000, 14.6937
29.500000, -38.000000, 14.430984
29.500000, -37.500000, 14.172627
29.500000, -37.000000, 13.918582
29.500000, -36.500000, 13.668805
29.500000, -36.000000, 13.423252
29.500000, -35.500000, 13.181882
29.500000, -35.000000, 12.944655
29.500000, -34.500000, 12.711529
29.500000, -34.000000, 12.482468
29.500000, -33.500000, 12.257434
29.500000, -33.000000, 12.036391
29.500000, -32.500000, 11.819304
29.500000, -32.000000, 11.606138
29.500000, -31.500000, 11.396862
29.500000, -31.000000, 11.191442
29.500000, -30.500000, 10.989848
29.500000, -30.000000, 10.792049
29.500000, -29.500000, 10.598017
29.500000, -29.000000, 10.407722
29.500000, -28.500000, 10.221137
29.500000, -28.000000, 10.038235
29.500000, -27.500000, 9.85899
29.500000, -27.000000, 9.683378
29.500000, -26.500000, 9.511372
29.500000, -26.000000, 9.342949
29.500000, -25.500000, 9.178087
29.500000, -25.000000, 9.016762
29.500000, -24.500000, 8.858954
29.500000, -24.000000, 8.70464
29.500000, -23.500000, 8.5538
29.500000, -23.000000, 8.406414
29.500000, -22.500000, 8.262463
29.500000, -22.000000, 8.121929
29.500000, -21.500000, 7.984793
29.500000, -21.000000, 7.851037
29.500000, -20.500000, 7.720645
29.500000, -20.000000, 7.593599
29.500000, -19.500000, 7.469885
29.500000, -19.000000, 7.349486
29.500000, -18.500000, 7.232388
29.500000, -18.000000, 7.118576
29.500000, -17.500000, 7.008037
29.500000, -17.000000, 6.900756
29.500000, -16.500000, 6.796721
29.500000, -16.000000, 6.695918
29.500000, -15.500000, 6.598337
29.500000, -15.000000, 6.503966
29.500000, -14.500000, 6.412792
29.500000, -14.000000, 6.324806
29.500000, -13.500000, 6.239997
29.500000, -13.000000, 6.158355
29.500000, -12.500000, 6.079871
29.500000, -12.000000, 6.004534
29.500000, -11.500000, 5.932338
29.500000, -11.000000, 5.863273
29.500000, -10.500000, 5.797331
29.500000, -10.000000, 5.734505
29.500000, -9.500000, 5.674787
29.500000, -9.000000, 5.618171
29.500000, -8.500000, 5.564651
29.500000, -8.000000, 5.514219
29.500000, -7.500000, 5.466872
29.500000, -7.000000, 5.422602
29.500000, -6.500000, 5.381406
29.500000, -6.000000, 5.343278
29.500000, -5.500000, 5.308215
29.500000, -5.000000, 5.276212
29.500000, -4.500000, 5.247265
29.500000, -4.000000, 5.221373
29.500000, -3.500000, 5.198531
29.500000, -3.000000, 5.178737
29.500000, -2.500000, 5.161989
29.500000, -2.000000, 5.148285
29.500000, -1.500000, 5.137624
29.500000, -1.000000, 5.130004
29.500000, -0.500000, 5.125425
29.500000, 0.000000, 5.123885
29.500000, 0.500000, 5.125386
29.500000, 1.000000, 5.129926
29.500000, 1.500000, 5.137507
29.500000, 2.000000, 5.148129
29.500000, 2.500000, 5.161794
29.500000, 3.000000, 5.178503
29.500000, 3.500000, 5.198258
29.500000, 4.000000, 5.221061
29.500000, 4.500000, 5.246915
29.500000, 5.000000, 5.275822
29.500000, 5.500000, 5.307785
29.500000, 6.000000, 5.34281
29.500000, 6.500000, 5.380898
29.500000, 7.000000, 5.422055
29.500000, 7.500000, 5.466285
29.500000, 8.000000, 5.513593
29.500000, 8.500000, 5.563985
29.500000, 9.000000, 5.617466
29.500000, 9.500000, 5.674042
29.500000, 10.000000, 5.73372
29.500000, 10.500000, 5.796506
29.500000, 11.000000, 5.862408
29.500000, 11.500000, 5.931434
29.500000, 12.000000, 6.00359
29.500000, 12.500000, 6.078886
29.500000, 13.000000, 6.15733
29.500000, 13.500000, 6.238932
29.500000, 14.000000, 6.3237
29.500000, 14.500000, 6.411645
29.500000, 15.000000, 6.502778
29.500000, 15.500000, 6.597108
29.500000, 16.000000, 6.694648
29.500000, 16.500000, 6.795409
29.500000, 17.000000, 6.899403
29.500000, 17.500000, 7.006642
29.500000, 18.000000, 7.11714
29.500000, 18.500000, 7.23091
29.500000, 19.000000, 7.347966
29.500000, 19.500000, 7.468322
29.500000, 20.000000, 7.591994
29.500000, 20.500000, 7.718996
29.500000, 21.000000, 7.849346
29.500000, 21.500000, 7.983058
29.500000, 22.000000, 8.120151
29.500000, 22.500000, 8.260642
29.500000, 23.000000, 8.404549
29.500000, 23.500000, 8.55189
29.500000, 24.000000, 8.702686
29.500000, 24.500000, 8.856955
29.500000, 25.000000, 9.014719
29.500000, 25.500000, 9.175999
29.500000, 26.000000, 9.340815
29.500000, 26.500000, 9.509192
29.500000, 27.000000, 9.681152
29.500000, 27.500000, 9.856718
29.500000, 28.000000, 10.035916
29.500000, 28.500000, 10.218771
29.500000, 29.000000, 10.405309
29.500000, 29.500000, 10.595556
29.500000, 30.000000, 10.78954
29.500000, 30.500000, 10.98729
29.500000, 31.000000, 11.188836
29.500000, 31.500000, 11.394206
29.500000, 32.000000, 11.603433
29.500000, 32.500000, 11.816549
29.500000, 33.000000, 12.033586
29.500000, 33.500000, 12.254578
29.500000, 34.000000, 12.479561
29.500000, 34.500000, 12.70857
29.500000, 35.000000, 12.941643
29.500000, 35.500000, 13.178818
29.500000, 36.000000, 13.420134
29.500000, 36.500000, 13.665633
29.500000, 37.000000, 13.915356
29.500000, 37.500000, 14.169346
29.500000, 38.000000, 14.427648
29.500000, 38.500000, 14.690307
29.500000, 39.000000, 14.957373
29.500000, 39.500000, 15.228892
29.500000, 40.000000, 15.504916
29.500000, 40.500000, 15.785497
29.500000, 41.000000, 16.070688
29.500000, 41.500000, 16.360546
29.500000, 42.000000, 16.655127
29.500000, 42.500000, 16.954491
30.000000, -42.500000, 17.169792
30.000000, -42.000000, 16.869469
30.000000, -41.500000, 16.57395
30.000000, -41.000000, 16.283177
30.000000, -40.500000, 15.997092
30.000000, -40.000000, 15.715638
30.000000, -39.500000, 15.438761
30.000000, -39.000000, 15.166408
30.000000, -38.500000, 14.898528
30.000000, -38.000000, 14.635072
30.000000, -37.500000, 14.375992
30.000000, -37.000000, 14.121242
30.000000, -36.500000, 13.870776
30.000000, -36.000000, 13.624551
30.000000, -35.500000, 13.382525
30.000000, -35.000000, 13.144656
30.000000, -34.500000, 12.910904
30.000000, -34.000000, 12.681232
30.000000, -33.500000, 12.4556
30.000000, -33.000000, 12.233974
30.000000, -32.500000, 12.016318
30.000000, -32.000000, 11.802596
30.000000, -31.500000, 11.592777
30.000000, -31.000000, 11.386828
30.000000, -30.500000, 11.184717
30.000000, -30.000000, 10.986413
30.000000, -29.500000, 10.791888
30.000000, -29.000000, 10.601113
30.000000, -28.500000, 10.414059
30.000000, -28.000000, 10.2307
30.000000, -27.500000, 10.051009
30.000000, -27.000000, 9.874961
30.000000, -26.500000, 9.702531
30.000000, -26.000000, 9.533695
30.000000, -25.500000, 9.368429
30.000000, -25.000000, 9.206712
30.000000, -24.500000, 9.04852
30.000000, -24.000000, 8.893833
30.000000, -23.500000, 8.74263
30.000000, -23.000000, 8.594892
30.000000, -22.500000, 8.450597
30.000000, -22.000000, 8.309728
30.000000, -21.500000, 8.172267
30.000000, -21.000000, 8.038195
30.000000, -20.500000, 7.907495
30.000000, -20.000000, 7.780152
30.000000, -19.500000, 7.656148
30.000000, -19.000000, 7.535468
30.000000, -18.500000, 7.418098
30.000000, -18.000000, 7.304022
30.000000, -17.500000, 7.193227
30.000000, -17.000000, 7.085698
30.000000, -16.500000, 6.981424
30.000000, -16.000000, 6.88039
30.000000, -15.500000, 6.782586
30.000000, -15.000000, 6.687999
30.000000, -14.500000, 6.596618
30.000000, -14.000000, 6.508431
30.000000, -13.500000, 6.42343
30.000000, -13.000000, 6.341603
30.000000, -12.500000, 6.262941
30.000000, -12.000000, 6.187435
30.000000, -11.500000, 6.115076
30.000000, -11.000000, 6.045856
30.000000, -10.500000, 5.979766
30.000000, -10.000000, 5.916799
30.000000, -9.500000, 5.856948
30.000000, -9.000000, 5.800205
30.000000, -8.500000, 5.746566
30.000000, -8.000000, 5.696022
30.000000, -7.500000, 5.648569
30.000000, -7.000000, 5.604201
30.000000, -6.500000, 5.562913
30.000000, -6.000000, 5.524701
30.000000, -5.500000, 5.48956
30.000000, -5.000000, 5.457486
30.000000, -4.500000, 5.428476
30.000000, -4.000000, 5.402526
30.000000, -3.500000, 5.379633
30.000000, -3.000000, 5.359796
30.000000, -2.500000, 5.343011
30.000000, -2.000000, 5.329277
30.000000, -1.500000, 5.318592
30.000000, -1.000000, 5.310955
30.000000, -0.500000, 5.306366
30.000000, 0.000000, 5.304823
30.000000, 0.500000, 5.306327
30.000000, 1.000000, 5.310877
30.000000, 1.500000, 5.318475
30.000000, 2.000000, 5.329121
30.000000, 2.500000, 5.342816
30.000000, 3.000000, 5.359562
30.000000, 3.500000, 5.37936
30.000000, 4.000000, 5.402213
30.000000, 4.500000, 5.428124
30.000000, 5.000000, 5.457095
30.000000, 5.500000, 5.48913
30.000000, 6.000000, 5.524232
30.000000, 6.500000, 5.562404
30.000000, 7.000000, 5.603653
30.000000, 7.500000, 5.647981
30.000000, 8.000000, 5.695395
30.000000, 8.500000, 5.745899
30.000000, 9.000000, 5.799499
30.000000, 9.500000, 5.856201
30.000000, 10.000000, 5.916013
30.000000, 10.500000, 5.97894
30.000000, 11.000000, 6.044989
30.000000, 11.500000, 6.11417
30.000000, 12.000000, 6.186488
30.000000, 12.500000, 6.261954
30.000000, 13.000000, 6.340576
30.000000, 13.500000, 6.422362
30.000000, 14.000000, 6.507323
30.000000, 14.500000, 6.595468
30.000000, 15.000000, 6.686808
30.000000, 15.500000, 6.781354
30.000000, 16.000000, 6.879117
30.000000, 16.500000, 6.980109
30.000000, 17.000000, 7.084342
30.000000, 17.500000, 7.191829
30.000000, 18.000000, 7.302582
30.000000, 18.500000, 7.416616
30.000000, 19.000000, 7.533944
30.000000, 19.500000, 7.654581
30.000000, 20.000000, 7.778543
30.000000, 20.500000, 7.905843
30.000000, 21.000000, 8.0365
30.000000, 21.500000, 8.170528
30.000000, 22.000000, 8.307946
30.000000, 22.500000, 8.448771
30.000000, 23.000000, 8.593022
30.000000, 23.500000, 8.740716
30.000000, 24.000000, 8.891875
30.000000, 24.500000, 9.046517
30.000000, 25.000000, 9.204663
30.000000, 25.500000, 9.366336
30.000000, 26.000000, 9.531556
30.000000, 26.500000, 9.700346
30.000000, 27.000000, 9.87273
30.000000, 27.500000, 10.048731
30.000000, 28.000000, 10.228375
30.000000, 28.500000, 10.411687
30.000000, 29.000000, 10.598694
30.000000, 29.500000, 10.789421
30.000000, 30.000000, 10.983898
30.000000, 30.500000, 11.182153
30.000000, 31.000000, 11.384215
30.000000, 31.500000, 11.590115
30.000000, 32.000000, 11.799884
30.000000, 32.500000, 12.013556
30.000000, 33.000000, 12.231161
30.000000, 33.500000, 12.452737
30.000000, 34.000000, 12.678316
30.000000, 34.500000, 12.907937
30.000000, 35.000000, 13.141636
30.000000, 35.500000, 13.379452
30.000000, 36.000000, 13.621425
30.000000, 36.500000, 13.867596
30.000000, 37.000000, 14.118007
30.000000, 37.500000, 14.372702
30.000000, 38.000000, 14.631726
30.000000, 38.500000, 14.895126
30.000000, 39.000000, 15.162949
30.000000, 39.500000, 15.435244
30.000000, 40.000000, 15.712063
30.000000, 40.500000, 15.993458
30.000000, 41.000000, 16.279484
30.000000, 41.500000, 16.570196
30.000000, 42.000000, 16.865654
30.000000, 42.500000, 17.165916
30.500000, -42.500000, 17.385439
30.500000, -42.000000, 17.084194
30.500000, -41.500000, 16.787777
30.500000, -41.000000, 16.496127
30.500000, -40.500000, 16.209185
30.500000, -40.000000, 15.926895
30.500000, -39.500000, 15.649202
30.500000, -39.000000, 15.376053
30.500000, -38.500000, 15.107396
30.500000, -38.000000, 14.843182
30.500000, -37.500000, 14.583361
30.500000, -37.000000, 14.327888
30.500000, -36.500000, 14.076716
30.500000, -36.000000, 13.829801
30.500000, -35.500000, 13.587101
30.500000, -35.000000, 13.348575
30.500000, -34.500000, 13.114181
30.500000, -34.000000, 12.883882
30.500000, -33.500000, 12.657638
30.500000, -33.000000, 12.435415
30.500000, -32.500000, 12.217175
30.500000, -32.000000, 12.002884
30.500000, -31.500000, 11.792509
30.500000, -31.000000, 11.586016
30.500000, -30.500000, 11.383375
30.500000, -30.000000, 11.184555
30.500000, -29.500000, 10.989525
30.500000, -29.000000, 10.798257
30.500000, -28.500000, 10.610723
30.500000, -28.000000, 10.426895
30.500000, -27.500000, 10.246747
30.500000, -27.000000, 10.070253
30.500000, -26.500000, 9.897389
30.500000, -26.000000, 9.728129
30.500000, -25.500000, 9.56245
30.500000, -25.000000, 9.40033
30.500000, -24.500000, 9.241747
30.500000, -24.000000, 9.086678
30.500000, -23.500000, 8.935103
30.500000, -23.000000, 8.787003
30.500000, -22.500000, 8.642356
30.500000, -22.000000, 8.501145
30.500000, -21.500000, 8.36335
30.500000, -21.000000, 8.228954
30.500000, -20.500000, 8.097941
30.500000, -20.000000, 7.970291
30.500000, -19.500000, 7.845991
30.500000, -19.000000, 7.725024
30.500000, -18.500000, 7.607374
30.500000, -18.000000, 7.493028
30.500000, -17.500000, 7.381971
30.500000, -17.000000, 7.274189
30.500000, -16.500000, 7.16967
30.500000, -16.000000, 7.068399
30.500000, -15.500000, 6.970366
30.500000, -15.000000, 6.875558
30.500000, -14.500000, 6.783964
30.500000, -14.000000, 6.695573
30.500000, -13.500000, 6.610375
30.500000, -13.000000, 6.528359
30.500000, -12.500000, 6.449515
30.500000, -12.000000, 6.373835
30.500000, -11.500000, 6.30131
30.500000, -11.000000, 6.231931
30.500000, -10.500000, 6.165689
30.500000, -10.000000, 6.102578
30.500000, -9.500000, 6.042591
30.500000, -9.000000, 5.985719
30.500000, -8.500000, 5.931957
30.500000, -8.000000, 5.881298
30.500000, -7.500000, 5.833737
30.500000, -7.000000, 5.789269
30.500000, -6.500000, 5.747887
30.500000, -6.000000, 5.709589
30.500000, -5.500000, 5.674368
30.500000, -5.000000, 5.642221
30.500000, -4.500000, 5.613146
30.500000, -4.000000, 5.587137
30.500000, -3.500000, 5.564193
30.500000, -3.000000, 5.544311
30.500000, -2.500000, 5.527488
30.500000, -2.000000, 5.513723
30.500000, -1.500000, 5.503014
30.500000, -1.000000, 5.49536
30.500000, -0.500000, 5.49076
30.500000, 0.000000, 5.489214
30.500000, 0.500000, 5.490721
30.500000, 1.000000, 5.495282
30.500000, 1.500000, 5.502897
30.500000, 2.000000, 5.513566
30.500000, 2.500000, 5.527292
30.500000, 3.000000, 5.544076
30.500000, 3.500000, 5.563919
30.500000, 4.000000, 5.586824
30.500000, 4.500000, 5.612793
30.500000, 5.000000, 5.64183
30.500000, 5.500000, 5.673937
30.500000, 6.000000, 5.709118
30.500000, 6.500000, 5.747377
30.500000, 7.000000, 5.788719
30.500000, 7.500000, 5.833148
30.500000, 8.000000, 5.88067
30.500000, 8.500000, 5.931288
30.500000, 9.000000, 5.985011
30.500000, 9.500000, 6.041842
30.500000, 10.000000, 6.10179
30.500000, 10.500000, 6.164861
30.500000, 11.000000, 6.231062
30.500000, 11.500000, 6.300402
30.500000, 12.000000, 6.372887
30.500000, 12.500000, 6.448526
30.500000, 13.000000, 6.527329
30.500000, 13.500000, 6.609304
30.500000, 14.000000, 6.694462
30.500000, 14.500000, 6.782812
30.500000, 15.000000, 6.874365
30.500000, 15.500000, 6.969132
30.500000, 16.000000, 7.067123
30.500000, 16.500000, 7.168352
30.500000, 17.000000, 7.27283
30.500000, 17.500000, 7.38057
30.500000, 18.000000, 7.491585
30.500000, 18.500000, 7.605889
30.500000, 19.000000, 7.723496
30.500000, 19.500000, 7.844421
30.500000, 20.000000, 7.968678
30.500000, 20.500000, 8.096284
30.500000, 21.000000, 8.227255
30.500000, 21.500000, 8.361607
30.500000, 22.000000, 8.499358
30.500000, 22.500000, 8.640526
30.500000, 23.000000, 8.785128
30.500000, 23.500000, 8.933185
30.500000, 24.000000, 9.084715
30.500000, 24.500000, 9.239738
30.500000, 25.000000, 9.398277
30.500000, 25.500000, 9.560351
30.500000, 26.000000, 9.725984
30.500000, 26.500000, 9.895198
30.500000, 27.000000, 10.068016
30.500000, 27.500000, 10.244464
30.500000, 28.000000, 10.424565
30.500000, 28.500000, 10.608345
30.500000, 29.000000, 10.795832
30.500000, 29.500000, 10.987052
30.500000, 30.000000, 11.182033
30.500000, 30.500000, 11.380805
30.500000, 31.000000, 11.583397
30.500000, 31.500000, 11.789839
30.500000, 32.000000, 12.000165
30.500000, 32.500000, 12.214405
30.500000, 33.000000, 12.432594
30.500000, 33.500000, 12.654767
30.500000, 34.000000, 12.880959
30.500000, 34.500000, 13.111206
30.500000, 35.000000, 13.345547
30.500000, 35.500000, 13.58402
30.500000, 36.000000, 13.826666
30.500000, 36.500000, 14.073526
30.500000, 37.000000, 14.324644
30.500000, 37.500000, 14.580062
30.500000, 38.000000, 14.839826
30.500000, 38.500000, 15.103984
30.500000, 39.000000, 15.372584
30.500000, 39.500000, 15.645675
30.500000, 40.000000, 15.92331
30.500000, 40.500000, 16.20554
30.500000, 41.000000, 16.492422
30.500000, 41.500000, 16.784012
30.500000, 42.000000, 17.080368
30.500000, 42.500000, 17.381551
31.000000, -42.500000, 17.605336
31.000000, -42.000000, 17.303146
31.000000, -41.500000, 17.005806
31.000000, -41.000000, 16.713256
31.000000, -40.500000, 16.425436
31.000000, -40.000000, 16.142289
31.000000, -39.500000, 15.86376
31.000000, -39.000000, 15.589794
31.000000, -38.500000, 15.32034
31.000000, -38.000000, 15.055348
31.000000, -37.500000, 14.794767
31.000000, -37.000000, 14.538552
31.000000, -36.500000, 14.286656
31.000000, -36.000000, 14.039034
31.000000, -35.500000, 13.795644
31.000000, -35.000000, 13.556444
31.000000, -34.500000, 13.321392
31.000000, -34.000000, 13.090451
31.000000, -33.500000, 12.86358
31.000000, -33.000000, 12.640744
31.000000, -32.500000, 12.421906
31.000000, -32.000000, 12.207031
31.000000, -31.500000, 11.996086
31.000000, -31.000000, 11.789038
31.000000, -30.500000, 11.585854
31.000000, -30.000000, 11.386504
31.000000, -29.500000, 11.190957
31.000000, -29.000000, 10.999184
31.000000, -28.500000, 10.811158
31.000000, -28.000000, 10.62685
31.000000, -27.500000, 10.446234
31.000000, -27.000000, 10.269283
31.000000, -26.500000, 10.095973
31.000000, -26.000000, 9.926279
31.000000, -25.500000, 9.760178
31.000000, -25.000000, 9.597645
31.000000, -24.500000, 9.43866
31.000000, -24.000000, 9.283201
31.000000, -23.500000, 9.131245
31.000000, -23.000000, 8.982774
31.000000, -22.500000, 8.837767
31.000000, -22.000000, 8.696205
31.000000, -21.500000, 8.558069
31.000000, -21.000000, 8.423342
31.000000, -20.500000, 8.292006
31.000000, -20.000000, 8.164044
31.000000, -19.500000, 8.03944
31.000000, -19.000000, 7.918178
31.000000, -18.500000, 7.800243
31.000000, -18.000000, 7.68562
31.000000, -17.500000, 7.574295
31.000000, -17.000000, 7.466254
31.000000, -16.500000, 7.361483
31.000000, -16.000000, 7.25997
31.000000, -15.500000, 7.161703
31.000000, -15.000000, 7.066669
31.000000, -14.500000, 6.974858
31.000000, -14.000000, 6.886257
31.000000, -13.500000, 6.800857
31.000000, -13.000000, 6.718647
31.000000, -12.500000, 6.639618
31.000000, -12.000000, 6.56376
31.000000, -11.500000, 6.491064
31.000000, -11.000000, 6.421522
31.000000, -10.500000, 6.355126
31.000000, -10.000000, 6.291867
31.000000, -9.500000, 6.231739
31.000000, -9.000000, 6.174735
31.000000, -8.500000, 6.120848
31.000000, -8.000000, 6.070072
31.000000, -7.500000, 6.022401
31.000000, -7.000000, 5.977829
31.000000, -6.500000, 5.936352
31.000000, -6.000000, 5.897964
31.000000, -5.500000, 5.862662
31.000000, -5.000000, 5.830442
31.000000, -4.500000, 5.801299
31.000000, -4.000000, 5.77523
31.000000, -3.500000, 5.752233
31.000000, -3.000000, 5.732305
31.000000, -2.500000, 5.715444
31.000000, -2.000000, 5.701647
31.000000, -1.500000, 5.690913
31.000000, -1.000000, 5.683242
31.000000, -0.500000, 5.678631
31.000000, 0.000000, 5.677082
31.000000, 0.500000, 5.678592
31.000000, 1.000000, 5.683163
31.000000, 1.500000, 5.690796
31.000000, 2.000000, 5.70149
31.000000, 2.500000, 5.715247
31.000000, 3.000000, 5.73207
31.000000, 3.500000, 5.751959
31.000000, 4.000000, 5.774916
31.000000, 4.500000, 5.800945
31.000000, 5.000000, 5.830049
31.000000, 5.500000, 5.86223
31.000000, 6.000000, 5.897493
31.000000, 6.500000, 5.935841
31.000000, 7.000000, 5.977278
31.000000, 7.500000, 6.02181
31.000000, 8.000000, 6.069442
31.000000, 8.500000, 6.120178
31.000000, 9.000000, 6.174025
31.000000, 9.500000, 6.23099
31.000000, 10.000000, 6.291077
31.000000, 10.500000, 6.354296
31.000000, 11.000000, 6.420652
31.000000, 11.500000, 6.490153
31.000000, 12.000000, 6.562809
31.000000, 12.500000, 6.638626
31.000000, 13.000000, 6.717615
31.000000, 13.500000, 6.799784
31.000000, 14.000000, 6.885143
31.000000, 14.500000, 6.973703
31.000000, 15.000000, 7.065473
31.000000, 15.500000, 7.160465
31.000000, 16.000000, 7.258691
31.000000, 16.500000, 7.360162
31.000000, 17.000000, 7.464891
31.000000, 17.500000, 7.57289
31.000000, 18.000000, 7.684174
31.000000, 18.500000, 7.798754
31.000000, 19.000000, 7.916647
31.000000, 19.500000, 8.037866
31.000000, 20.000000, 8.162427
31.000000, 20.500000, 8.290346
31.000000, 21.000000, 8.421638
31.000000, 21.500000, 8.556322
31.000000, 22.000000, 8.694414
31.000000, 22.500000, 8.835932
31.000000, 23.000000, 8.980895
31.000000, 23.500000, 9.129322
31.000000, 24.000000, 9.281232
31.000000, 24.500000, 9.436647
31.000000, 25.000000, 9.595587
31.000000, 25.500000, 9.758073
31.000000, 26.000000, 9.924129
31.000000, 26.500000, 10.093777
31.000000, 27.000000, 10.26704
31.000000, 27.500000, 10.443944
31.000000, 28.000000, 10.624514
31.000000, 28.500000, 10.808774
31.000000, 29.000000, 10.996753
31.000000, 29.500000, 11.188477
31.000000, 30.000000, 11.383975
31.000000, 30.500000, 11.583276
31.000000, 31.000000, 11.786411
31.000000, 31.500000, 11.99341
31.000000, 32.000000, 12.204305
31.000000, 32.500000, 12.419129
31.000000, 33.000000, 12.637916
31.000000, 33.500000, 12.860701
31.000000, 34.000000, 13.087519
31.000000, 34.500000, 13.318409
31.000000, 35.000000, 13.553407
31.000000, 35.500000, 13.792554
31.000000, 36.000000, 14.035891
31.000000, 36.500000, 14.283458
31.000000, 37.000000, 14.535299
31.000000, 37.500000, 14.791458
31.000000, 38.000000, 15.051982
31.000000, 38.500000, 15.316918
31.000000, 39.000000, 15.586315
31.000000, 39.500000, 15.860222
31.000000, 40.000000, 16.138693
31.000000, 40.500000, 16.42178
31.000000, 41.000000, 16.70954
31.000000, 41.500000, 17.002029
31.000000, 42.000000, 17.299307
31.000000, 42.500000, 17.601436
31.500000, -42.500000, 17.829524
31.500000, -42.000000, 17.526364
31.500000, -41.500000, 17.228078
31.500000, -41.000000, 16.934604
31.500000, -40.500000, 16.645883
31.500000, -40.000000, 16.361857
31.500000, -39.500000, 16.08247
31.500000, -39.000000, 15.807667
31.500000, -38.500000, 15.537396
31.500000, -38.000000, 15.271605
31.500000, -37.500000, 15.010246
31.500000, -37.000000, 14.753271
31.500000, -36.500000, 14.500632
31.500000, -36.000000, 14.252286
31.500000, -35.500000, 14.008188
31.500000, -35.000000, 13.768297
31.500000, -34.500000, 13.532571
31.500000, -34.000000, 13.300971
31.500000, -33.500000, 13.073457
31.500000, -33.000000, 12.849994
