7.000000, -41.000000, 10.603202
7.000000, -40.500000, 10.336451
7.000000, -40.000000, 10.07388
7.000000, -39.500000, 9.815448
7.000000, -39.000000, 9.561112
7.000000, -38.500000, 9.310833
7.000000, -38.000000, 9.06457
7.000000, -37.500000, 8.822287
7.000000, -37.000000, 8.583946
7.000000, -36.500000, 8.349512
7.000000, -36.000000, 8.118949
7.000000, -35.500000, 7.892224
7.000000, -35.000000, 7.669303
7.000000, -34.500000, 7.450155
7.000000, -34.000000, 7.234748
7.000000, -33.500000, 7.023052
7.000000, -33.000000, 6.815038
7.000000, -32.500000, 6.610678
7.000000, -32.000000, 6.409943
7.000000, -31.500000, 6.212805
7.000000, -31.000000, 6.01924
7.000000, -30.500000, 5.829221
7.000000, -30.000000, 5.642724
7.000000, -29.500000, 5.459724
7.000000, -29.000000, 5.280197
7.000000, -28.500000, 5.104122
7.000000, -28.000000, 4.931475
7.000000, -27.500000, 4.762235
7.000000, -27.000000, 4.596381
7.000000, -26.500000, 4.433893
7.000000, -26.000000, 4.27475
7.000000, -25.500000, 4.118934
7.000000, -25.000000, 3.966426
7.000000, -24.500000, 3.817207
7.000000, -24.000000, 3.671259
7.000000, -23.500000, 3.528567
7.000000, -23.000000, 3.389112
7.000000, -22.500000, 3.252878
7.000000, -22.000000, 3.119851
7.000000, -21.500000, 2.990015
7.000000, -21.000000, 2.863354
7.000000, -20.500000, 2.739855
7.000000, -20.000000, 2.619504
7.000000, -19.500000, 2.502287
7.000000, -19.000000, 2.388192
7.000000, -18.500000, 2.277205
7.000000, -18.000000, 2.169314
7.000000, -17.500000, 2.064508
7.000000, -17.000000, 1.962775
7.000000, -16.500000, 1.864104
7.000000, -16.000000, 1.768484
7.000000, -15.500000, 1.675906
7.000000, -15.000000, 1.586359
7.000000, -14.500000, 1.499834
7.000000, -14.000000, 1.416322
7.000000, -13.500000, 1.335813
7.000000, -13.000000, 1.2583
7.000000, -12.500000, 1.183773
7.000000, -12.000000, 1.112226
7.000000, -11.500000, 1.043652
7.000000, -11.000000, 0.978041
7.000000, -10.500000, 0.915389
7.000000, -10.000000, 0.855689
7.000000, -9.500000, 0.798934
7.000000, -9.000000, 0.745118
7.000000, -8.500000, 0.694236
7.000000, -8.000000, 0.646284
7.000000, -7.500000, 0.601255
7.000000, -7.000000, 0.559146
7.000000, -6.500000, 0.519951
7.000000, -6.000000, 0.483668
7.000000, -5.500000, 0.450292
7.000000, -5.000000, 0.41982
7.000000, -4.500000, 0.39225
7.000000, -4.000000, 0.367577
7.000000, -3.500000, 0.3458
7.000000, -3.000000, 0.326916
7.000000, -2.500000, 0.310924
7.000000, -2.000000, 0.297822
7.000000, -1.500000, 0.287608
7.000000, -1.000000, 0.280282
7.000000, -0.500000, 0.275843
7.000000, 0.000000, 0.27429
7.000000, 0.500000, 0.275623
7.000000, 1.000000, 0.279843
7.000000, 1.500000, 0.286949
7.000000, 2.000000, 0.296943
7.000000, 2.500000, 0.309826
7.000000, 3.000000, 0.325598
7.000000, 3.500000, 0.344261
7.000000, 4.000000, 0.365818
7.000000, 4.500000, 0.39027
7.000000, 5.000000, 0.41762
7.000000, 5.500000, 0.44787
7.000000, 6.000000, 0.481025
7.000000, 6.500000, 0.517086
7.000000, 7.000000, 0.556058
7.000000, 7.500000, 0.597945
7.000000, 8.000000, 0.642751
7.000000, 8.500000, 0.69048
7.000000, 9.000000, 0.741137
7.000000, 9.500000, 0.794729
7.000000, 10.000000, 0.851259
7.000000, 10.500000, 0.910734
7.000000, 11.000000, 0.97316
7.000000, 11.500000, 1.038544
7.000000, 12.000000, 1.106892
7.000000, 12.500000, 1.178211
7.000000, 13.000000, 1.252509
7.000000, 13.500000, 1.329794
7.000000, 14.000000, 1.410073
7.000000, 14.500000, 1.493355
7.000000, 15.000000, 1.579649
7.000000, 15.500000, 1.668965
7.000000, 16.000000, 1.761311
7.000000, 16.500000, 1.856697
7.000000, 17.000000, 1.955134
7.000000, 17.500000, 2.056632
7.000000, 18.000000, 2.161203
7.000000, 18.500000, 2.268857
7.000000, 19.000000, 2.379607
7.000000, 19.500000, 2.493464
7.000000, 20.000000, 2.610442
7.000000, 20.500000, 2.730553
7.000000, 21.000000, 2.85381
7.000000, 21.500000, 2.980228
7.000000, 22.000000, 3.109821
7.000000, 22.500000, 3.242604
7.000000, 23.000000, 3.378592
7.000000, 23.500000, 3.5178
7.000000, 24.000000, 3.660244
7.000000, 24.500000, 3.805942
7.000000, 25.000000, 3.95491
7.000000, 25.500000, 4.107167
7.000000, 26.000000, 4.26273
7.000000, 26.500000, 4.421617
7.000000, 27.000000, 4.583849
7.000000, 27.500000, 4.749445
7.000000, 28.000000, 4.918425
7.000000, 28.500000, 5.090811
7.000000, 29.000000, 5.266624
7.000000, 29.500000, 5.445886
7.000000, 30.000000, 5.62862
7.000000, 30.500000, 5.814849
7.000000, 31.000000, 6.004598
7.000000, 31.500000, 6.197891
7.000000, 32.000000, 6.394754
7.000000, 32.500000, 6.595214
7.000000, 33.000000, 6.799297
7.000000, 33.500000, 7.00703
7.000000, 34.000000, 7.218444
7.000000, 34.500000, 7.433566
7.000000, 35.000000, 7.652427
7.000000, 35.500000, 7.875059
7.000000, 36.000000, 8.101492
7.000000, 36.500000, 8.331761
7.000000, 37.000000, 8.565899
7.000000, 37.500000, 8.80394
7.000000, 38.000000, 9.04592
7.000000, 38.500000, 9.291877
7.000000, 39.000000, 9.541849
7.000000, 39.500000, 9.795873
7.000000, 40.000000, 10.053991
7.000000, 40.500000, 10.316244
7.000000, 41.000000, 10.582675
7.000000, 41.500000, 10.853327
7.000000, 42.000000, 11.128245
7.000000, 42.500000, 11.407477
7.500000, -42.500000, 11.476223
7.500000, -42.000000, 11.196486
7.500000, -41.500000, 10.92107
7.500000, -41.000000, 10.649927
7.500000, -40.500000, 10.383014
7.500000, -40.000000, 10.120284
7.500000, -39.500000, 9.861697
7.500000, -39.000000, 9.607209
7.500000, -38.500000, 9.356782
7.500000, -38.000000, 9.110374
7.500000, -37.500000, 8.86795
7.500000, -37.000000, 8.62947
7.500000, -36.500000, 8.3949
7.500000, -36.000000, 8.164205
7.500000, -35.500000, 7.93735
7.500000, -35.000000, 7.714303
7.500000, -34.500000, 7.495031
7.500000, -34.000000, 7.279503
7.500000, -33.500000, 7.06769
7.500000, -33.000000, 6.85956
7.500000, -32.500000, 6.655087
7.500000, -32.000000, 6.454241
7.500000, -31.500000, 6.256996
7.500000, -31.000000, 6.063326
7.500000, -30.500000, 5.873204
7.500000, -30.000000, 5.686606
7.500000, -29.500000, 5.503508
7.500000, -29.000000, 5.323886
7.500000, -28.500000, 5.147717
7.500000, -28.000000, 4.974978
7.500000, -27.500000, 4.805649
7.500000, -27.000000, 4.639708
7.500000, -26.500000, 4.477135
7.500000, -26.000000, 4.317909
7.500000, -25.500000, 4.162012
7.500000, -25.000000, 4.009425
7.500000, -24.500000, 3.860129
7.500000, -24.000000, 3.714106
7.500000, -23.500000, 3.571341
7.500000, -23.000000, 3.431814
7.500000, -22.500000, 3.295512
7.500000, -22.000000, 3.162417
7.500000, -21.500000, 3.032515
7.500000, -21.000000, 2.90579
7.500000, -20.500000, 2.782229
7.500000, -20.000000, 2.661818
7.500000, -19.500000, 2.544542
7.500000, -19.000000, 2.430389
7.500000, -18.500000, 2.319346
7.500000, -18.000000, 2.211401
7.500000, -17.500000, 2.106543
7.500000, -17.000000, 2.004759
7.500000, -16.500000, 1.906039
7.500000, -16.000000, 1.810372
7.500000, -15.500000, 1.717748
7.500000, -15.000000, 1.628156
7.500000, -14.500000, 1.541588
7.500000, -14.000000, 1.458034
7.500000, -13.500000, 1.377485
7.500000, -13.000000, 1.299932
7.500000, -12.500000, 1.225369
7.500000, -12.000000, 1.153786
7.500000, -11.500000, 1.085177
7.500000, -11.000000, 1.019533
7.500000, -10.500000, 0.95685
7.500000, -10.000000, 0.897119
7.500000, -9.500000, 0.840335
7.500000, -9.000000, 0.786492
7.500000, -8.500000, 0.735584
7.500000, -8.000000, 0.687607
7.500000, -7.500000, 0.642555
7.500000, -7.000000, 0.600424
7.500000, -6.500000, 0.561209
7.500000, -6.000000, 0.524907
7.500000, -5.500000, 0.491513
7.500000, -5.000000, 0.461025
7.500000, -4.500000, 0.43344
7.500000, -4.000000, 0.408754
7.500000, -3.500000, 0.386965
7.500000, -3.000000, 0.368071
7.500000, -2.500000, 0.35207
7.500000, -2.000000, 0.338961
7.500000, -1.500000, 0.328741
7.500000, -1.000000, 0.321411
7.500000, -0.500000, 0.316969
7.500000, 0.000000, 0.315415
7.500000, 0.500000, 0.316749
7.500000, 1.000000, 0.32097
7.500000, 1.500000, 0.32808
7.500000, 2.000000, 0.338079
7.500000, 2.500000, 0.350968
7.500000, 3.000000, 0.366748
7.500000, 3.500000, 0.385421
7.500000, 4.000000, 0.406989
7.500000, 4.500000, 0.431454
7.500000, 5.000000, 0.458818
7.500000, 5.500000, 0.489084
7.500000, 6.000000, 0.522255
7.500000, 6.500000, 0.558335
7.500000, 7.000000, 0.597328
7.500000, 7.500000, 0.639236
7.500000, 8.000000, 0.684065
7.500000, 8.500000, 0.731818
7.500000, 9.000000, 0.782502
7.500000, 9.500000, 0.836121
7.500000, 10.000000, 0.89268
7.500000, 10.500000, 0.952185
7.500000, 11.000000, 1.014643
7.500000, 11.500000, 1.08006
7.500000, 12.000000, 1.148442
7.500000, 12.500000, 1.219798
7.500000, 13.000000, 1.294133
7.500000, 13.500000, 1.371457
7.500000, 14.000000, 1.451777
7.500000, 14.500000, 1.535101
7.500000, 15.000000, 1.621438
7.500000, 15.500000, 1.710799
7.500000, 16.000000, 1.803191
7.500000, 16.500000, 1.898625
7.500000, 17.000000, 1.997111
7.500000, 17.500000, 2.098661
7.500000, 18.000000, 2.203284
7.500000, 18.500000, 2.310992
7.500000, 19.000000, 2.421798
7.500000, 19.500000, 2.535713
7.500000, 20.000000, 2.652749
7.500000, 20.500000, 2.772921
7.500000, 21.000000, 2.896241
7.500000, 21.500000, 3.022723
7.500000, 22.000000, 3.152382
7.500000, 22.500000, 3.285233
7.500000, 23.000000, 3.42129
7.500000, 23.500000, 3.560569
7.500000, 24.000000, 3.703086
7.500000, 24.500000, 3.848859
7.500000, 25.000000, 3.997905
7.500000, 25.500000, 4.15024
7.500000, 26.000000, 4.305884
7.500000, 26.500000, 4.464854
7.500000, 27.000000, 4.627171
7.500000, 27.500000, 4.792854
7.500000, 28.000000, 4.961924
7.500000, 28.500000, 5.134401
7.500000, 29.000000, 5.310307
7.500000, 29.500000, 5.489665
7.500000, 30.000000, 5.672496
7.500000, 30.500000, 5.858826
7.500000, 31.000000, 6.048678
7.500000, 31.500000, 6.242076
7.500000, 32.000000, 6.439047
7.500000, 32.500000, 6.639617
7.500000, 33.000000, 6.843812
7.500000, 33.500000, 7.051661
7.500000, 34.000000, 7.263193
7.500000, 34.500000, 7.478435
7.500000, 35.000000, 7.69742
7.500000, 35.500000, 7.920178
7.500000, 36.000000, 8.146741
7.500000, 36.500000, 8.377142
7.500000, 37.000000, 8.611414
7.500000, 37.500000, 8.849594
7.500000, 38.000000, 9.091716
7.500000, 38.500000, 9.337818
7.500000, 39.000000, 9.587937
7.500000, 39.500000, 9.842113
7.500000, 40.000000, 10.100386
7.500000, 40.500000, 10.362797
7.500000, 41.000000, 10.62939
7.500000, 41.500000, 10.900208
7.500000, 42.000000, 11.175296
7.500000, 42.500000, 11.454702
8.000000, -42.500000, 11.526785
8.000000, -42.000000, 11.246861
8.000000, -41.500000, 10.971262
8.000000, -41.000000, 10.699941
8.000000, -40.500000, 10.432853
8.000000, -40.000000, 10.169953
8.000000, -39.500000, 9.911199
8.000000, -39.000000, 9.656548
8.000000, -38.500000, 9.405961
8.000000, -38.000000, 9.159398
8.000000, -37.500000, 8.916821
8.000000, -37.000000, 8.678193
8.000000, -36.500000, 8.443477
8.000000, -36.000000, 8.21264
8.000000, -35.500000, 7.985646
8.000000, -35.000000, 7.762463
8.000000, -34.500000, 7.543058
8.000000, -34.000000, 7.3274
8.000000, -33.500000, 7.115459
8.000000, -33.000000, 6.907206
8.000000, -32.500000, 6.702611
8.000000, -32.000000, 6.501647
8.000000, -31.500000, 6.304286
8.000000, -31.000000, 6.110502
8.000000, -30.500000, 5.92027
8.000000, -30.000000, 5.733564
8.000000, -29.500000, 5.55036
8.000000, -29.000000, 5.370635
8.000000, -28.500000, 5.194365
8.000000, -28.000000, 5.021528
8.000000, -27.500000, 4.852103
8.000000, -27.000000, 4.686069
8.000000, -26.500000, 4.523404
8.000000, -26.000000, 4.364089
8.000000, -25.500000, 4.208105
8.000000, -25.000000, 4.055433
8.000000, -24.500000, 3.906054
8.000000, -24.000000, 3.759951
8.000000, -23.500000, 3.617107
8.000000, -23.000000, 3.477504
8.000000, -22.500000, 3.341127
8.000000, -22.000000, 3.20796
8.000000, -21.500000, 3.077987
8.000000, -21.000000, 2.951194
8.000000, -20.500000, 2.827566
8.000000, -20.000000, 2.70709
8.000000, -19.500000, 2.589751
8.000000, -19.000000, 2.475537
8.000000, -18.500000, 2.364435
8.000000, -18.000000, 2.256433
8.000000, -17.500000, 2.151518
8.000000, -17.000000, 2.04968
8.000000, -16.500000, 1.950908
8.000000, -16.000000, 1.85519
8.000000, -15.500000, 1.762517
8.000000, -15.000000, 1.672878
8.000000, -14.500000, 1.586264
8.000000, -14.000000, 1.502666
8.000000, -13.500000, 1.422075
8.000000, -13.000000, 1.344482
8.000000, -12.500000, 1.269879
8.000000, -12.000000, 1.198259
8.000000, -11.500000, 1.129614
8.000000, -11.000000, 1.063936
8.000000, -10.500000, 1.001219
8.000000, -10.000000, 0.941457
8.000000, -9.500000, 0.884644
8.000000, -9.000000, 0.830773
8.000000, -8.500000, 0.779838
8.000000, -8.000000, 0.731836
8.000000, -7.500000, 0.68676
8.000000, -7.000000, 0.644607
8.000000, -6.500000, 0.605372
8.000000, -6.000000, 0.569051
8.000000, -5.500000, 0.53564
8.000000, -5.000000, 0.505136
8.000000, -4.500000, 0.477536
8.000000, -4.000000, 0.452837
8.000000, -3.500000, 0.431037
8.000000, -3.000000, 0.412133
8.000000, -2.500000, 0.396123
8.000000, -2.000000, 0.383007
8.000000, -1.500000, 0.372782
8.000000, -1.000000, 0.365448
8.000000, -0.500000, 0.361004
8.000000, 0.000000, 0.359449
8.000000, 0.500000, 0.360783
8.000000, 1.000000, 0.365007
8.000000, 1.500000, 0.37212
8.000000, 2.000000, 0.382124
8.000000, 2.500000, 0.39502
8.000000, 3.000000, 0.410808
8.000000, 3.500000, 0.429491
8.000000, 4.000000, 0.45107
8.000000, 4.500000, 0.475547
8.000000, 5.000000, 0.502925
8.000000, 5.500000, 0.533207
8.000000, 6.000000, 0.566396
8.000000, 6.500000, 0.602495
8.000000, 7.000000, 0.641508
8.000000, 7.500000, 0.683438
8.000000, 8.000000, 0.72829
8.000000, 8.500000, 0.776069
8.000000, 9.000000, 0.826779
8.000000, 9.500000, 0.880425
8.000000, 10.000000, 0.937014
8.000000, 10.500000, 0.996551
8.000000, 11.000000, 1.059041
8.000000, 11.500000, 1.124493
8.000000, 12.000000, 1.192911
8.000000, 12.500000, 1.264304
8.000000, 13.000000, 1.338678
8.000000, 13.500000, 1.416042
8.000000, 14.000000, 1.496404
8.000000, 14.500000, 1.579773
8.000000, 15.000000, 1.666156
8.000000, 15.500000, 1.755563
8.000000, 16.000000, 1.848004
8.000000, 16.500000, 1.943489
8.000000, 17.000000, 2.042028
8.000000, 17.500000, 2.143631
8.000000, 18.000000, 2.24831
8.000000, 18.500000, 2.356076
8.000000, 19.000000, 2.466941
8.000000, 19.500000, 2.580917
8.000000, 20.000000, 2.698017
8.000000, 20.500000, 2.818253
8.000000, 21.000000, 2.94164
8.000000, 21.500000, 3.06819
8.000000, 22.000000, 3.19792
8.000000, 22.500000, 3.330843
8.000000, 23.000000, 3.466974
8.000000, 23.500000, 3.60633
8.000000, 24.000000, 3.748926
8.000000, 24.500000, 3.894779
8.000000, 25.000000, 4.043907
8.000000, 25.500000, 4.196327
8.000000, 26.000000, 4.352057
8.000000, 26.500000, 4.511117
8.000000, 27.000000, 4.673525
8.000000, 27.500000, 4.839302
8.000000, 28.000000, 5.008467
8.000000, 28.500000, 5.181042
8.000000, 29.000000, 5.357049
8.000000, 29.500000, 5.53651
8.000000, 30.000000, 5.719447
8.000000, 30.500000, 5.905884
8.000000, 31.000000, 6.095847
8.000000, 31.500000, 6.289358
8.000000, 32.000000, 6.486445
8.000000, 32.500000, 6.687133
8.000000, 33.000000, 6.891449
8.000000, 33.500000, 7.099422
8.000000, 34.000000, 7.31108
8.000000, 34.500000, 7.526453
8.000000, 35.000000, 7.745571
8.000000, 35.500000, 7.968464
8.000000, 36.000000, 8.195166
8.000000, 36.500000, 8.425709
8.000000, 37.000000, 8.660127
8.000000, 37.500000, 8.898455
8.000000, 38.000000, 9.140729
8.000000, 38.500000, 9.386986
8.000000, 39.000000, 9.637265
8.000000, 39.500000, 9.891603
8.000000, 40.000000, 10.150043
8.000000, 40.500000, 10.412624
8.000000, 41.000000, 10.679391
8.000000, 41.500000, 10.950387
8.000000, 42.000000, 11.225658
8.000000, 42.500000, 11.50525
8.500000, -42.500000, 11.580694
8.500000, -42.000000, 11.30057
8.500000, -41.500000, 11.024776
8.500000, -41.000000, 10.753265
8.500000, -40.500000, 10.48599
8.500000, -40.000000, 10.222908
8.500000, -39.500000, 9.963976
8.500000, -39.000000, 9.709151
8.500000, -38.500000, 9.458394
8.500000, -38.000000, 9.211664
8.500000, -37.500000, 8.968925
8.500000, -37.000000, 8.730137
8.500000, -36.500000, 8.495266
8.500000, -36.000000, 8.264277
8.500000, -35.500000, 8.037134
8.500000, -35.000000, 7.813805
8.500000, -34.500000, 7.594258
8.500000, -34.000000, 7.378462
8.500000, -33.500000, 7.166386
8.500000, -33.000000, 6.957999
8.500000, -32.500000, 6.753275
8.500000, -32.000000, 6.552184
8.500000, -31.500000, 6.354699
8.500000, -31.000000, 6.160795
8.500000, -30.500000, 5.970444
8.500000, -30.000000, 5.783623
8.500000, -29.500000, 5.600306
8.500000, -29.000000, 5.42047
8.500000, -28.500000, 5.244093
8.500000, -28.000000, 5.071152
8.500000, -27.500000, 4.901624
8.500000, -27.000000, 4.735489
8.500000, -26.500000, 4.572727
8.500000, -26.000000, 4.413317
8.500000, -25.500000, 4.25724
8.500000, -25.000000, 4.104477
8.500000, -24.500000, 3.95501
8.500000, -24.000000, 3.808821
8.500000, -23.500000, 3.665893
8.500000, -23.000000, 3.526209
8.500000, -22.500000, 3.389752
8.500000, -22.000000, 3.256507
8.500000, -21.500000, 3.126459
8.500000, -21.000000, 2.999593
8.500000, -20.500000, 2.875894
8.500000, -20.000000, 2.755348
8.500000, -19.500000, 2.637942
8.500000, -19.000000, 2.523662
8.500000, -18.500000, 2.412497
8.500000, -18.000000, 2.304434
8.500000, -17.500000, 2.19946
8.500000, -17.000000, 2.097564
8.500000, -16.500000, 1.998736
8.500000, -16.000000, 1.902964
8.500000, -15.500000, 1.810239
8.500000, -15.000000, 1.72055
8.500000, -14.500000, 1.633888
8.500000, -14.000000, 1.550243
8.500000, -13.500000, 1.469607
8.500000, -13.000000, 1.391971
8.500000, -12.500000, 1.317326
8.500000, -12.000000, 1.245666
8.500000, -11.500000, 1.176983
8.500000, -11.000000, 1.111269
8.500000, -10.500000, 1.048518
8.500000, -10.000000, 0.988723
8.500000, -9.500000, 0.931878
8.500000, -9.000000, 0.877977
8.500000, -8.500000, 0.827015
8.500000, -8.000000, 0.778986
8.500000, -7.500000, 0.733886
8.500000, -7.000000, 0.69171
8.500000, -6.500000, 0.652453
8.500000, -6.000000, 0.616112
8.500000, -5.500000, 0.582683
8.500000, -5.000000, 0.552162
8.500000, -4.500000, 0.524547
8.500000, -4.000000, 0.499835
8.500000, -3.500000, 0.478022
8.500000, -3.000000, 0.459108
8.500000, -2.500000, 0.44309
8.500000, -2.000000, 0.429967
8.500000, -1.500000, 0.419736
8.500000, -1.000000, 0.412398
8.500000, -0.500000, 0.407951
8.500000, 0.000000, 0.406395
8.500000, 0.500000, 0.40773
8.500000, 1.000000, 0.411956
8.500000, 1.500000, 0.419074
8.500000, 2.000000, 0.429083
8.500000, 2.500000, 0.441986
8.500000, 3.000000, 0.457783
8.500000, 3.500000, 0.476475
8.500000, 4.000000, 0.498066
8.500000, 4.500000, 0.522557
8.500000, 5.000000, 0.54995
8.500000, 5.500000, 0.580249
8.500000, 6.000000, 0.613456
8.500000, 6.500000, 0.649574
8.500000, 7.000000, 0.688608
8.500000, 7.500000, 0.730561
8.500000, 8.000000, 0.775438
8.500000, 8.500000, 0.823243
8.500000, 9.000000, 0.873981
8.500000, 9.500000, 0.927657
8.500000, 10.000000, 0.984277
8.500000, 10.500000, 1.043846
8.500000, 11.000000, 1.106372
8.500000, 11.500000, 1.171859
8.500000, 12.000000, 1.240315
8.500000, 12.500000, 1.311748
8.500000, 13.000000, 1.386164
8.500000, 13.500000, 1.463571
8.500000, 14.000000, 1.543978
8.500000, 14.500000, 1.627392
8.500000, 15.000000, 1.713824
8.500000, 15.500000, 1.803281
8.500000, 16.000000, 1.895774
8.500000, 16.500000, 1.991313
8.500000, 17.000000, 2.089907
8.500000, 17.500000, 2.191568
8.500000, 18.000000, 2.296306
8.500000, 18.500000, 2.404134
8.500000, 19.000000, 2.515062
8.500000, 19.500000, 2.629103
8.500000, 20.000000, 2.746269
8.500000, 20.500000, 2.866575
8.500000, 21.000000, 2.990033
8.500000, 21.500000, 3.116657
8.500000, 22.000000, 3.246461
8.500000, 22.500000, 3.379461
8.500000, 23.000000, 3.515672
8.500000, 23.500000, 3.655109
8.500000, 24.000000, 3.797789
8.500000, 24.500000, 3.943728
8.500000, 25.000000, 4.092944
8.500000, 25.500000, 4.245455
8.500000, 26.000000, 4.401278
8.500000, 26.500000, 4.560433
8.500000, 27.000000, 4.722938
8.500000, 27.500000, 4.888814
8.500000, 28.000000, 5.058082
8.500000, 28.500000, 5.230762
8.500000, 29.000000, 5.406876
8.500000, 29.500000, 5.586447
8.500000, 30.000000, 5.769497
8.500000, 30.500000, 5.95605
8.500000, 31.000000, 6.14613
8.500000, 31.500000, 6.339762
8.500000, 32.000000, 6.536972
8.500000, 32.500000, 6.737787
8.500000, 33.000000, 6.942233
8.500000, 33.500000, 7.150338
8.500000, 34.000000, 7.362132
8.500000, 34.500000, 7.577643
8.500000, 35.000000, 7.796902
8.500000, 35.500000, 8.019941
8.500000, 36.000000, 8.246791
8.500000, 36.500000, 8.477486
8.500000, 37.000000, 8.712059
8.500000, 37.500000, 8.950546
8.500000, 38.000000, 9.192983
8.500000, 38.500000, 9.439406
8.500000, 39.000000, 9.689854
8.500000, 39.500000, 9.944367
8.500000, 40.000000, 10.202984
8.500000, 40.500000, 10.465747
8.500000, 41.000000, 10.7327
8.500000, 41.500000, 11.003887
8.500000, 42.000000, 11.279352
8.500000, 42.500000, 11.559143
9.000000, -42.500000, 11.637963
9.000000, -42.000000, 11.357627
9.000000, -41.500000, 11.081625
9.000000, -41.000000, 10.809911
9.000000, -40.500000, 10.542438
9.000000, -40.000000, 10.279162
9.000000, -39.500000, 10.02004
9.000000, -39.000000, 9.76503
9.000000, -38.500000, 9.514092
9.000000, -38.000000, 9.267185
9.000000, -37.500000, 9.024272
9.000000, -37.000000, 8.785316
9.000000, -36.500000, 8.550279
9.000000, -36.000000, 8.319128
9.000000, -35.500000, 8.091827
9.000000, -35.000000, 7.868344
9.000000, -34.500000, 7.648646
9.000000, -34.000000, 7.432702
9.000000, -33.500000, 7.220481
9.000000, -33.000000, 7.011954
9.000000, -32.500000, 6.807091
9.000000, -32.000000, 6.605866
9.000000, -31.500000, 6.408249
9.000000, -31.000000, 6.214216
9.000000, -30.500000, 6.02374
9.000000, -30.000000, 5.836795
9.000000, -29.500000, 5.653359
9.000000, -29.000000, 5.473406
9.000000, -28.500000, 5.296914
9.000000, -28.000000, 5.123861
9.000000, -27.500000, 4.954224
9.000000, -27.000000, 4.787983
9.000000, -26.500000, 4.625117
9.000000, -26.000000, 4.465606
9.000000, -25.500000, 4.30943
9.000000, -25.000000, 4.156571
9.000000, -24.500000, 4.00701
9.000000, -24.000000, 3.860729
9.000000, -23.500000, 3.717712
9.000000, -23.000000, 3.57794
9.000000, -22.500000, 3.441399
9.000000, -22.000000, 3.308072
9.000000, -21.500000, 3.177944
9.000000, -21.000000, 3.051
9.000000, -20.500000, 2.927225
9.000000, -20.000000, 2.806605
9.000000, -19.500000, 2.689128
9.000000, -19.000000, 2.574779
9.000000, -18.500000, 2.463547
9.000000, -18.000000, 2.355418
9.000000, -17.500000, 2.250381
9.000000, -17.000000, 2.148424
9.000000, -16.500000, 2.049537
9.000000, -16.000000, 1.953708
9.000000, -15.500000, 1.860927
9.000000, -15.000000, 1.771184
9.000000, -14.500000, 1.684471
9.000000, -14.000000, 1.600776
9.000000, -13.500000, 1.520092
9.000000, -13.000000, 1.44241
9.000000, -12.500000, 1.367722
9.000000, -12.000000, 1.29602
9.000000, -11.500000, 1.227296
9.000000, -11.000000, 1.161544
9.000000, -10.500000, 1.098756
9.000000, -10.000000, 1.038926
9.000000, -9.500000, 0.982048
9.000000, -9.000000, 0.928115
9.000000, -8.500000, 0.877123
9.000000, -8.000000, 0.829067
9.000000, -7.500000, 0.78394
9.000000, -7.000000, 0.741739
9.000000, -6.500000, 0.70246
9.000000, -6.000000, 0.666098
9.000000, -5.500000, 0.632649
9.000000, -5.000000, 0.602111
9.000000, -4.500000, 0.57448
9.000000, -4.000000, 0.549753
9.000000, -3.500000, 0.527928
9.000000, -3.000000, 0.509003
9.000000, -2.500000, 0.492976
9.000000, -2.000000, 0.479845
9.000000, -1.500000, 0.469608
9.000000, -1.000000, 0.462266
9.000000, -0.500000, 0.457817
9.000000, 0.000000, 0.45626
9.000000, 0.500000, 0.457596
9.000000, 1.000000, 0.461824
9.000000, 1.500000, 0.468946
9.000000, 2.000000, 0.478961
9.000000, 2.500000, 0.491871
9.000000, 3.000000, 0.507677
9.000000, 3.500000, 0.52638
9.000000, 4.000000, 0.547984
9.000000, 4.500000, 0.572489
9.000000, 5.000000, 0.599898
9.000000, 5.500000, 0.630214
9.000000, 6.000000, 0.66344
9.000000, 6.500000, 0.699579
9.000000, 7.000000, 0.738636
9.000000, 7.500000, 0.780614
9.000000, 8.000000, 0.825516
9.000000, 8.500000, 0.873349
9.000000, 9.000000, 0.924117
9.000000, 9.500000, 0.977824
9.000000, 10.000000, 1.034477
9.000000, 10.500000, 1.094082
9.000000, 11.000000, 1.156643
9.000000, 11.500000, 1.222169
9.000000, 12.000000, 1.290666
9.000000, 12.500000, 1.36214
9.000000, 13.000000, 1.4366
9.000000, 13.500000, 1.514053
9.000000, 14.000000, 1.594507
9.000000, 14.500000, 1.677971
9.000000, 15.000000, 1.764454
9.000000, 15.500000, 1.853965
9.000000, 16.000000, 1.946513
9.000000, 16.500000, 2.042109
9.000000, 17.000000, 2.140762
9.000000, 17.500000, 2.242484
9.000000, 18.000000, 2.347286
9.000000, 18.500000, 2.455178
9.000000, 19.000000, 2.566173
9.000000, 19.500000, 2.680283
9.000000, 20.000000, 2.797521
9.000000, 20.500000, 2.9179
9.000000, 21.000000, 3.041434
9.000000, 21.500000, 3.168135
9.000000, 22.000000, 3.29802
9.000000, 22.500000, 3.431102
9.000000, 23.000000, 3.567397
9.000000, 23.500000, 3.706921
9.000000, 24.000000, 3.84969
9.000000, 24.500000, 3.995721
9.000000, 25.000000, 4.14503
9.000000, 25.500000, 4.297637
9.000000, 26.000000, 4.453559
9.000000, 26.500000, 4.612815
9.000000, 27.000000, 4.775424
9.000000, 27.500000, 4.941407
9.000000, 28.000000, 5.110783
9.000000, 28.500000, 5.283575
9.000000, 29.000000, 5.459803
9.000000, 29.500000, 5.639491
9.000000, 30.000000, 5.82266
9.000000, 30.500000, 6.009336
9.000000, 31.000000, 6.199541
9.000000, 31.500000, 6.393302
9.000000, 32.000000, 6.590644
9.000000, 32.500000, 6.791593
9.000000, 33.000000, 6.996177
9.000000, 33.500000, 7.204423
9.000000, 34.000000, 7.416361
9.000000, 34.500000, 7.632019
9.000000, 35.000000, 7.85143
9.000000, 35.500000, 8.074623
9.000000, 36.000000, 8.30163
9.000000, 36.500000, 8.532487
9.000000, 37.000000, 8.767225
9.000000, 37.500000, 9.005881
9.000000, 38.000000, 9.24849
9.000000, 38.500000, 9.49509
9.000000, 39.000000, 9.745719
9.000000, 39.500000, 10.000417
9.000000, 40.000000, 10.259223
9.000000, 40.500000, 10.52218
9.000000, 41.000000, 10.789331
9.000000, 41.500000, 11.06072
9.000000, 42.000000, 11.336392
9.000000, 42.500000, 11.616396
9.500000, -42.500000, 11.6986
9.500000, -42.000000, 11.418039
9.500000, -41.500000, 11.141817
9.500000, -41.000000, 10.869887
9.500000, -40.500000, 10.602204
9.500000, -40.000000, 10.338723
9.500000, -39.500000, 10.0794
9.500000, -39.000000, 9.824194
9.500000, -38.500000, 9.573063
9.500000, -38.000000, 9.325969
9.500000, -37.500000, 9.082873
9.500000, -37.000000, 8.843737
9.500000, -36.500000, 8.608525
9.500000, -36.000000, 8.377202
9.500000, -35.500000, 8.149734
9.500000, -35.000000, 7.926087
9.500000, -34.500000, 7.706228
9.500000, -34.000000, 7.490128
9.500000, -33.500000, 7.277754
9.500000, -33.000000, 7.069077
9.500000, -32.500000, 6.864068
9.500000, -32.000000, 6.662699
9.500000, -31.500000, 6.464943
9.500000, -31.000000, 6.270774
9.500000, -30.500000, 6.080164
9.500000, -30.000000, 5.893089
9.500000, -29.500000, 5.709526
9.500000, -29.000000, 5.529449
9.500000, -28.500000, 5.352836
9.500000, -28.000000, 5.179664
9.500000, -27.500000, 5.009912
9.500000, -27.000000, 4.843558
9.500000, -26.500000, 4.680581
9.500000, -26.000000, 4.520963
9.500000, -25.500000, 4.364682
9.500000, -25.000000, 4.211721
9.500000, -24.500000, 4.06206
9.500000, -24.000000, 3.915682
9.500000, -23.500000, 3.77257
9.500000, -23.000000, 3.632707
9.500000, -22.500000, 3.496076
9.500000, -22.000000, 3.362662
9.500000, -21.500000, 3.232449
9.500000, -21.000000, 3.105422
9.500000, -20.500000, 2.981567
9.500000, -20.000000, 2.860869
9.500000, -19.500000, 2.743316
9.500000, -19.000000, 2.628894
9.500000, -18.500000, 2.51759
9.500000, -18.000000, 2.409392
9.500000, -17.500000, 2.304288
9.500000, -17.000000, 2.202266
9.500000, -16.500000, 2.103316
9.500000, -16.000000, 2.007426
9.500000, -15.500000, 1.914587
9.500000, -15.000000, 1.824788
9.500000, -14.500000, 1.73802
9.500000, -14.000000, 1.654273
9.500000, -13.500000, 1.573538
9.500000, -13.000000, 1.495807
9.500000, -12.500000, 1.421073
9.500000, -12.000000, 1.349326
9.500000, -11.500000, 1.280559
9.500000, -11.000000, 1.214766
9.500000, -10.500000, 1.151939
9.500000, -10.000000, 1.092072
9.500000, -9.500000, 1.035158
9.500000, -9.000000, 0.981193
9.500000, -8.500000, 0.930169
9.500000, -8.000000, 0.882083
9.500000, -7.500000, 0.836929
9.500000, -7.000000, 0.794702
9.500000, -6.500000, 0.755398
9.500000, -6.000000, 0.719014
9.500000, -5.500000, 0.685545
9.500000, -5.000000, 0.654988
9.500000, -4.500000, 0.62734
9.500000, -4.000000, 0.602598
9.500000, -3.500000, 0.58076
9.500000, -3.000000, 0.561823
9.500000, -2.500000, 0.545786
9.500000, -2.000000, 0.532647
9.500000, -1.500000, 0.522404
9.500000, -1.000000, 0.515057
9.500000, -0.500000, 0.510605
9.500000, 0.000000, 0.509047
9.500000, 0.500000, 0.510384
9.500000, 1.000000, 0.514615
9.500000, 1.500000, 0.521741
9.500000, 2.000000, 0.531762
9.500000, 2.500000, 0.54468
9.500000, 3.000000, 0.560496
9.500000, 3.500000, 0.579211
9.500000, 4.000000, 0.600827
9.500000, 4.500000, 0.625347
9.500000, 5.000000, 0.652773
9.500000, 5.500000, 0.683108
9.500000, 6.000000, 0.716354
9.500000, 6.500000, 0.752516
9.500000, 7.000000, 0.791597
9.500000, 7.500000, 0.8336
9.500000, 8.000000, 0.878531
9.500000, 8.500000, 0.926393
9.500000, 9.000000, 0.977192
9.500000, 9.500000, 1.030932
9.500000, 10.000000, 1.08762
9.500000, 10.500000, 1.147262
9.500000, 11.000000, 1.209862
9.500000, 11.500000, 1.275429
9.500000, 12.000000, 1.343968
9.500000, 12.500000, 1.415487
9.500000, 13.000000, 1.489993
9.500000, 13.500000, 1.567495
9.500000, 14.000000, 1.648
9.500000, 14.500000, 1.731516
9.500000, 15.000000, 1.818053
9.500000, 15.500000, 1.907621
9.500000, 16.000000, 2.000228
9.500000, 16.500000, 2.095884
9.500000, 17.000000, 2.1946
9.500000, 17.500000, 2.296386
9.500000, 18.000000, 2.401255
9.500000, 18.500000, 2.509216
9.500000, 19.000000, 2.620282
9.500000, 19.500000, 2.734466
9.500000, 20.000000, 2.85178
9.500000, 20.500000, 2.972236
9.500000, 21.000000, 3.09585
9.500000, 21.500000, 3.222634
9.500000, 22.000000, 3.352603
9.500000, 22.500000, 3.485772
9.500000, 23.000000, 3.622157
9.500000, 23.500000, 3.761773
9.500000, 24.000000, 3.904636
9.500000, 24.500000, 4.050764
9.500000, 25.000000, 4.200173
9.500000, 25.500000, 4.352881
9.500000, 26.000000, 4.508908
9.500000, 26.500000, 4.668271
9.500000, 27.000000, 4.83099
9.500000, 27.500000, 4.997085
9.500000, 28.000000, 5.166577
9.500000, 28.500000, 5.339487
9.500000, 29.000000, 5.515836
9.500000, 29.500000, 5.695648
9.500000, 30.000000, 5.878945
9.500000, 30.500000, 6.06575
9.500000, 31.000000, 6.256089
9.500000, 31.500000, 6.449986
9.500000, 32.000000, 6.647467
9.500000, 32.500000, 6.848559
9.500000, 33.000000, 7.053288
9.500000, 33.500000, 7.261684
9.500000, 34.000000, 7.473775
9.500000, 34.500000, 7.68959
9.500000, 35.000000, 7.90916
9.500000, 35.500000, 8.132516
9.500000, 36.000000, 8.359692
9.500000, 36.500000, 8.590719
9.500000, 37.000000, 8.825632
9.500000, 37.500000, 9.064467
9.500000, 38.000000, 9.30726
9.500000, 38.500000, 9.554047
9.500000, 39.000000, 9.804868
9.500000, 39.500000, 10.059762
9.500000, 40.000000, 10.318769
9.500000, 40.500000, 10.581931
9.500000, 41.000000, 10.849291
9.500000, 41.500000, 11.120895
9.500000, 42.000000, 11.396787
9.500000, 42.500000, 11.677016
10.000000, -42.500000, 11.762614
10.000000, -42.000000, 11.481815
10.000000, -41.500000, 11.20536
10.000000, -41.000000, 10.933203
10.000000, -40.500000, 10.665297
10.000000, -40.000000, 10.401599
10.000000, -39.500000, 10.142063
10.000000, -39.000000, 9.886649
10.000000, -38.500000, 9.635316
10.000000, -38.000000, 9.388023
10.000000, -37.500000, 9.144733
10.000000, -37.000000, 8.905407
10.000000, -36.500000, 8.67001
10.000000, -36.000000, 8.438506
10.000000, -35.500000, 8.21086
10.000000, -35.000000, 7.98704
10.000000, -34.500000, 7.767012
10.000000, -34.000000, 7.550746
10.000000, -33.500000, 7.33821
10.000000, -33.000000, 7.129375
10.000000, -32.500000, 6.924212
10.000000, -32.000000, 6.722692
10.000000, -31.500000, 6.524788
10.000000, -31.000000, 6.330474
10.000000, -30.500000, 6.139724
10.000000, -30.000000, 5.952512
10.000000, -29.500000, 5.768813
10.000000, -29.000000, 5.588605
10.000000, -28.500000, 5.411864
10.000000, -28.000000, 5.238567
10.000000, -27.500000, 5.068692
10.000000, -27.000000, 4.902219
10.000000, -26.500000, 4.739126
10.000000, -26.000000, 4.579394
10.000000, -25.500000, 4.423003
10.000000, -25.000000, 4.269933
10.000000, -24.500000, 4.120168
10.000000, -24.000000, 3.973687
10.000000, -23.500000, 3.830475
10.000000, -23.000000, 3.690515
10.000000, -22.500000, 3.553789
10.000000, -22.000000, 3.420283
10.000000, -21.500000, 3.28998
10.000000, -21.000000, 3.162866
10.000000, -20.500000, 3.038926
10.000000, -20.000000, 2.918146
10.000000, -19.500000, 2.800512
10.000000, -19.000000, 2.686012
10.000000, -18.500000, 2.574633
10.000000, -18.000000, 2.466362
10.000000, -17.500000, 2.361187
10.000000, -17.000000, 2.259097
10.000000, -16.500000, 2.16008
10.000000, -16.000000, 2.064126
10.000000, -15.500000, 1.971225
10.000000, -15.000000, 1.881366
10.000000, -14.500000, 1.79454
10.000000, -14.000000, 1.710737
10.000000, -13.500000, 1.629949
10.000000, -13.000000, 1.552168
10.000000, -12.500000, 1.477383
10.000000, -12.000000, 1.405589
10.000000, -11.500000, 1.336777
10.000000, -11.000000, 1.270941
10.000000, -10.500000, 1.208073
10.000000, -10.000000, 1.148167
10.000000, -9.500000, 1.091216
10.000000, -9.000000, 1.037215
10.000000, -8.500000, 0.986158
10.000000, -8.000000, 0.938041
10.000000, -7.500000, 0.892857
10.000000, -7.000000, 0.850603
10.000000, -6.500000, 0.811273
10.000000, -6.000000, 0.774865
10.000000, -5.500000, 0.741375
10.000000, -5.000000, 0.710798
10.000000, -4.500000, 0.683132
10.000000, -4.000000, 0.658374
10.000000, -3.500000, 0.636522
10.000000, -3.000000, 0.617573
10.000000, -2.500000, 0.601525
10.000000, -2.000000, 0.588378
10.000000, -1.500000, 0.578129
10.000000, -1.000000, 0.570777
10.000000, -0.500000, 0.566322
10.000000, 0.000000, 0.564763
10.000000, 0.500000, 0.566101
10.000000, 1.000000, 0.570334
10.000000, 1.500000, 0.577465
10.000000, 2.000000, 0.587493
10.000000, 2.500000, 0.600419
10.000000, 3.000000, 0.616245
10.000000, 3.500000, 0.634972
10.000000, 4.000000, 0.656602
10.000000, 4.500000, 0.681138
10.000000, 5.000000, 0.708582
10.000000, 5.500000, 0.738936
10.000000, 6.000000, 0.772204
10.000000, 6.500000, 0.808389
10.000000, 7.000000, 0.847495
10.000000, 7.500000, 0.889526
10.000000, 8.000000, 0.934486
10.000000, 8.500000, 0.982379
10.000000, 9.000000, 1.033211
10.000000, 9.500000, 1.086987
10.000000, 10.000000, 1.143712
10.000000, 10.500000, 1.203393
10.000000, 11.000000, 1.266034
10.000000, 11.500000, 1.331644
10.000000, 12.000000, 1.400228
10.000000, 12.500000, 1.471794
10.000000, 13.000000, 1.54635
10.000000, 13.500000, 1.623902
10.000000, 14.000000, 1.70446
10.000000, 14.500000, 1.788032
10.000000, 15.000000, 1.874627
10.000000, 15.500000, 1.964254
10.000000, 16.000000, 2.056923
10.000000, 16.500000, 2.152643
10.000000, 17.000000, 2.251425
10.000000, 17.500000, 2.35328
10.000000, 18.000000, 2.458219
10.000000, 18.500000, 2.566253
10.000000, 19.000000, 2.677395
10.000000, 19.500000, 2.791656
10.000000, 20.000000, 2.90905
10.000000, 20.500000, 3.029589
10.000000, 21.000000, 3.153287
10.000000, 21.500000, 3.280158
10.000000, 22.000000, 3.410217
10.000000, 22.500000, 3.543478
10.000000, 23.000000, 3.679957
10.000000, 23.500000, 3.81967
10.000000, 24.000000, 3.962633
10.000000, 24.500000, 4.108863
10.000000, 25.000000, 4.258377
10.000000, 25.500000, 4.411194
10.000000, 26.000000, 4.567331
10.000000, 26.500000, 4.726807
10.000000, 27.000000, 4.889642
10.000000, 27.500000, 5.055857
10.000000, 28.000000, 5.225471
10.000000, 28.500000, 5.398505
10.000000, 29.000000, 5.574983
10.000000, 29.500000, 5.754925
10.000000, 30.000000, 5.938356
10.000000, 30.500000, 6.125299
10.000000, 31.000000, 6.315779
10.000000, 31.500000, 6.50982
10.000000, 32.000000, 6.707448
10.000000, 32.500000, 6.908691
10.000000, 33.000000, 7.113575
10.000000, 33.500000, 7.322128
10.000000, 34.000000, 7.53438
10.000000, 34.500000, 7.750361
10.000000, 35.000000, 7.9701
10.000000, 35.500000, 8.193629
10.000000, 36.000000, 8.420982
10.000000, 36.500000, 8.65219
10.000000, 37.000000, 8.887289
10.000000, 37.500000, 9.126313
10.000000, 38.000000, 9.369299
10.000000, 38.500000, 9.616285
10.000000, 39.000000, 9.867308
10.000000, 39.500000, 10.122409
10.000000, 40.000000, 10.381628
10.000000, 40.500000, 10.645007
10.000000, 41.000000, 10.91259
10.000000, 41.500000, 11.184421
10.000000, 42.000000, 11.460545
10.000000, 42.500000, 11.741011
10.500000, -42.500000, 11.830014
10.500000, -42.000000, 11.548963
10.500000, -41.500000, 11.272263
10.500000, -41.000000, 10.999866
10.500000, -40.500000, 10.731726
10.500000, -40.000000, 10.467798
10.500000, -39.500000, 10.208038
10.500000, -39.000000, 9.952405
10.500000, -38.500000, 9.700858
10.500000, -38.000000, 9.453356
10.500000, -37.500000, 9.209861
10.500000, -37.000000, 8.970335
10.500000, -36.500000, 8.734742
10.500000, -36.000000, 8.503047
10.500000, -35.500000, 8.275214
10.500000, -35.000000, 8.051211
10.500000, -34.500000, 7.831005
10.500000, -34.000000, 7.614564
10.500000, -33.500000, 7.401858
10.500000, -33.000000, 7.192856
10.500000, -32.500000, 6.98753
10.500000, -32.000000, 6.785851
10.500000, -31.500000, 6.587791
10.500000, -31.000000, 6.393325
10.500000, -30.500000, 6.202426
10.500000, -30.000000, 6.015069
10.500000, -29.500000, 5.831228
10.500000, -29.000000, 5.650882
10.500000, -28.500000, 5.474005
10.500000, -28.000000, 5.300576
10.500000, -27.500000, 5.130573
10.500000, -27.000000, 4.963974
10.500000, -26.500000, 4.800759
10.500000, -26.000000, 4.640907
10.500000, -25.500000, 4.484399
10.500000, -25.000000, 4.331215
10.500000, -24.500000, 4.181339
10.500000, -24.000000, 4.03475
10.500000, -23.500000, 3.891433
10.500000, -23.000000, 3.75137
10.500000, -22.500000, 3.614544
10.500000, -22.000000, 3.48094
10.500000, -21.500000, 3.350543
10.500000, -21.000000, 3.223337
10.500000, -20.500000, 3.099307
10.500000, -20.000000, 2.978441
10.500000, -19.500000, 2.860723
10.500000, -19.000000, 2.746141
10.500000, -18.500000, 2.634682
10.500000, -18.000000, 2.526334
10.500000, -17.500000, 2.421084
10.500000, -17.000000, 2.318922
10.500000, -16.500000, 2.219835
10.500000, -16.000000, 2.123814
10.500000, -15.500000, 2.030847
10.500000, -15.000000, 1.940925
10.500000, -14.500000, 1.854038
10.500000, -14.000000, 1.770177
10.500000, -13.500000, 1.689333
10.500000, -13.000000, 1.611496
10.500000, -12.500000, 1.53666
10.500000, -12.000000, 1.464816
10.500000, -11.500000, 1.395957
10.500000, -11.000000, 1.330075
10.500000, -10.500000, 1.267163
10.500000, -10.000000, 1.207216
10.500000, -9.500000, 1.150226
10.500000, -9.000000, 1.096188
10.500000, -8.500000, 1.045096
10.500000, -8.000000, 0.996945
10.500000, -7.500000, 0.951731
10.500000, -7.000000, 0.909447
10.500000, -6.500000, 0.870091
10.500000, -6.000000, 0.833658
10.500000, -5.500000, 0.800145
10.500000, -5.000000, 0.769547
10.500000, -4.500000, 0.741862
10.500000, -4.000000, 0.717088
10.500000, -3.500000, 0.69522
10.500000, -3.000000, 0.676259
10.500000, -2.500000, 0.6602
10.500000, -2.000000, 0.647044
10.500000, -1.500000, 0.636788
10.500000, -1.000000, 0.629431
10.500000, -0.500000, 0.624973
10.500000, 0.000000, 0.623413
10.500000, 0.500000, 0.624751
10.500000, 1.000000, 0.628988
10.500000, 1.500000, 0.636123
10.500000, 2.000000, 0.646158
10.500000, 2.500000, 0.659093
10.500000, 3.000000, 0.67493
10.500000, 3.500000, 0.69367
10.500000, 4.000000, 0.715315
10.500000, 4.500000, 0.739867
10.500000, 5.000000, 0.76733
10.500000, 5.500000, 0.797705
10.500000, 6.000000, 0.830996
10.500000, 6.500000, 0.867205
10.500000, 7.000000, 0.906338
10.500000, 7.500000, 0.948398
10.500000, 8.000000, 0.993388
10.500000, 8.500000, 1.041314
10.500000, 9.000000, 1.092181
10.500000, 9.500000, 1.145994
10.500000, 10.000000, 1.202758
10.500000, 10.500000, 1.26248
10.500000, 11.000000, 1.325165
10.500000, 11.500000, 1.39082
10.500000, 12.000000, 1.459451
10.500000, 12.500000, 1.531067
10.500000, 13.000000, 1.605674
10.500000, 13.500000, 1.683281
10.500000, 14.000000, 1.763895
10.500000, 14.500000, 1.847526
10.500000, 15.000000, 1.934181
10.500000, 15.500000, 2.023871
10.500000, 16.000000, 2.116605
10.500000, 16.500000, 2.212393
10.500000, 17.000000, 2.311245
10.500000, 17.500000, 2.413172
10.500000, 18.000000, 2.518185
10.500000, 18.500000, 2.626296
10.500000, 19.000000, 2.737517
10.500000, 19.500000, 2.85186
10.500000, 20.000000, 2.969338
10.500000, 20.500000, 3.089964
10.500000, 21.000000, 3.213751
10.500000, 21.500000, 3.340714
10.500000, 22.000000, 3.470867
10.500000, 22.500000, 3.604226
10.500000, 23.000000, 3.740804
10.500000, 23.500000, 3.88062
10.500000, 24.000000, 4.023688
10.500000, 24.500000, 4.170026
10.500000, 25.000000, 4.319651
10.500000, 25.500000, 4.472581
10.500000, 26.000000, 4.628834
10.500000, 26.500000, 4.78843
10.500000, 27.000000, 4.951388
10.500000, 27.500000, 5.117728
10.500000, 28.000000, 5.28747
10.500000, 28.500000, 5.460637
10.500000, 29.000000, 5.637249
10.500000, 29.500000, 5.81733
10.500000, 30.000000, 6.000902
10.500000, 30.500000, 6.18799
10.500000, 31.000000, 6.378618
10.500000, 31.500000, 6.572811
10.500000, 32.000000, 6.770595
10.500000, 32.500000, 6.971996
10.500000, 33.000000, 7.177043
10.500000, 33.500000, 7.385763
10.500000, 34.000000, 7.598185
10.500000, 34.500000, 7.81434
10.500000, 35.000000, 8.034257
10.500000, 35.500000, 8.257969
10.500000, 36.000000, 8.485508
10.500000, 36.500000, 8.716907
10.500000, 37.000000, 8.952201
10.500000, 37.500000, 9.191425
10.500000, 38.000000, 9.434616
10.500000, 38.500000, 9.68181
10.500000, 39.000000, 9.933047
10.500000, 39.500000, 10.188367
10.500000, 40.000000, 10.44781
10.500000, 40.500000, 10.711418
10.500000, 41.000000, 10.979234
10.500000, 41.500000, 11.251305
10.500000, 42.000000, 11.527674
10.500000, 42.500000, 11.808391
11.000000, -42.500000, 11.900807
11.000000, -42.000000, 11.619492
11.000000, -41.500000, 11.342534
11.000000, -41.000000, 11.069884
11.000000, -40.500000, 10.801497
11.000000, -40.000000, 10.537328
11.000000, -39.500000, 10.277333
11.000000, -39.000000, 10.02147
11.000000, -38.500000, 9.769697
11.000000, -38.000000, 9.521975
11.000000, -37.500000, 9.278264
11.000000, -37.000000, 9.038528
11.000000, -36.500000, 8.80273
11.000000, -36.000000, 8.570833
11.000000, -35.500000, 8.342804
11.000000, -35.000000, 8.118609
11.000000, -34.500000, 7.898215
11.000000, -34.000000, 7.68159
11.000000, -33.500000, 7.468704
11.000000, -33.000000, 7.259527
11.000000, -32.500000, 7.054029
11.000000, -32.000000, 6.852182
11.000000, -31.500000, 6.653959
11.000000, -31.000000, 6.459333
11.000000, -30.500000, 6.268278
11.000000, -30.000000, 6.080768
11.000000, -29.500000, 5.896778
11.000000, -29.000000, 5.716286
11.000000, -28.500000, 5.539267
11.000000, -28.000000, 5.3657
11.000000, -27.500000, 5.195561
11.000000, -27.000000, 5.02883
11.000000, -26.500000, 4.865485
11.000000, -26.000000, 4.705507
11.000000, -25.500000, 4.548876
11.000000, -25.000000, 4.395574
11.000000, -24.500000, 4.24558
11.000000, -24.000000, 4.098878
11.000000, -23.500000, 3.95545
11.000000, -23.000000, 3.815279
11.000000, -22.500000, 3.678348
11.000000, -22.000000, 3.544642
11.000000, -21.500000, 3.414145
11.000000, -21.000000, 3.286842
11.000000, -20.500000, 3.162718
11.000000, -20.000000, 3.04176
11.000000, -19.500000, 2.923954
11.000000, -19.000000, 2.809286
11.000000, -18.500000, 2.697743
11.000000, -18.000000, 2.589314
11.000000, -17.500000, 2.483986
11.000000, -17.000000, 2.381747
11.000000, -16.500000, 2.282587
11.000000, -16.000000, 2.186495
11.000000, -15.500000, 2.093459
11.000000, -15.000000, 2.003471
11.000000, -14.500000, 1.91652
11.000000, -14.000000, 1.832597
11.000000, -13.500000, 1.751693
11.000000, -13.000000, 1.6738
11.000000, -12.500000, 1.59891
11.000000, -12.000000, 1.527013
11.000000, -11.500000, 1.458104
11.000000, -11.000000, 1.392174
11.000000, -10.500000, 1.329217
11.000000, -10.000000, 1.269225
11.000000, -9.500000, 1.212194
11.000000, -9.000000, 1.158117
11.000000, -8.500000, 1.106989
11.000000, -8.000000, 1.058803
11.000000, -7.500000, 1.013556
11.000000, -7.000000, 0.971242
11.000000, -6.500000, 0.931858
11.000000, -6.000000, 0.895399
11.000000, -5.500000, 0.861861
11.000000, -5.000000, 0.831241
11.000000, -4.500000, 0.803537
11.000000, -4.000000, 0.778744
11.000000, -3.500000, 0.756862
11.000000, -3.000000, 0.737886
11.000000, -2.500000, 0.721816
11.000000, -2.000000, 0.70865
11.000000, -1.500000, 0.698387
11.000000, -1.000000, 0.691025
11.000000, -0.500000, 0.686564
11.000000, 0.000000, 0.685003
11.000000, 0.500000, 0.686342
11.000000, 1.000000, 0.690582
11.000000, 1.500000, 0.697722
11.000000, 2.000000, 0.707764
11.000000, 2.500000, 0.720708
11.000000, 3.000000, 0.736556
11.000000, 3.500000, 0.75531
11.000000, 4.000000, 0.77697
11.000000, 4.500000, 0.80154
11.000000, 5.000000, 0.829023
11.000000, 5.500000, 0.859419
11.000000, 6.000000, 0.892734
11.000000, 6.500000, 0.92897
11.000000, 7.000000, 0.968131
11.000000, 7.500000, 1.010221
11.000000, 8.000000, 1.055243
11.000000, 8.500000, 1.103204
11.000000, 9.000000, 1.154108
11.000000, 9.500000, 1.20796
11.000000, 10.000000, 1.264765
11.000000, 10.500000, 1.32453
11.000000, 11.000000, 1.38726
11.000000, 11.500000, 1.452963
11.000000, 12.000000, 1.521644
11.000000, 12.500000, 1.593312
11.000000, 13.000000, 1.667974
11.000000, 13.500000, 1.745638
11.000000, 14.000000, 1.826311
11.000000, 14.500000, 1.910003
11.000000, 15.000000, 1.996722
11.000000, 15.500000, 2.086478
11.000000, 16.000000, 2.17928
11.000000, 16.500000, 2.275139
11.000000, 17.000000, 2.374065
11.000000, 17.500000, 2.476068
11.000000, 18.000000, 2.581159
11.000000, 18.500000, 2.689351
11.000000, 19.000000, 2.800655
11.000000, 19.500000, 2.915084
11.000000, 20.000000, 3.032651
11.000000, 20.500000, 3.153368
11.000000, 21.000000, 3.277249
11.000000, 21.500000, 3.404309
11.000000, 22.000000, 3.534561
11.000000, 22.500000, 3.668021
11.000000, 23.000000, 3.804705
11.000000, 23.500000, 3.944628
11.000000, 24.000000, 4.087807
11.000000, 24.500000, 4.234258
11.000000, 25.000000, 4.384
11.000000, 25.500000, 4.537049
11.000000, 26.000000, 4.693425
11.000000, 26.500000, 4.853147
11.000000, 27.000000, 5.016233
11.000000, 27.500000, 5.182705
11.000000, 28.000000, 5.352583
11.000000, 28.500000, 5.525888
11.000000, 29.000000, 5.702643
11.000000, 29.500000, 5.882869
11.000000, 30.000000, 6.06659
11.000000, 30.500000, 6.25383
11.000000, 31.000000, 6.444614
11.000000, 31.500000, 6.638967
11.000000, 32.000000, 6.836914
11.000000, 32.500000, 7.038483
11.000000, 33.000000, 7.243701
11.000000, 33.500000, 7.452596
11.000000, 34.000000, 7.665197
11.000000, 34.500000, 7.881535
11.000000, 35.000000, 8.10164
11.000000, 35.500000, 8.325544
11.000000, 36.000000, 8.553279
11.000000, 36.500000, 8.784879
11.000000, 37.000000, 9.020378
11.000000, 37.500000, 9.259813
11.000000, 38.000000, 9.503218
11.000000, 38.500000, 9.750632
11.000000, 39.000000, 10.002094
11.000000, 39.500000, 10.257644
11.000000, 40.000000, 10.517322
11.000000, 40.500000, 10.781171
11.000000, 41.000000, 11.049234
11.000000, 41.500000, 11.321556
11.000000, 42.000000, 11.598184
11.000000, 42.500000, 11.879165
11.500000, -42.500000, 11.975005
11.500000, -42.000000, 11.693412
11.500000, -41.500000, 11.416183
11.500000, -41.000000, 11.143268
11.500000, -40.500000, 10.874622
11.500000, -40.000000, 10.6102
11.500000, -39.500000, 10.349957
11.500000, -39.000000, 10.093852
11.500000, -38.500000, 9.841842
11.500000, -38.000000, 9.593889
11.500000, -37.500000, 9.349952
11.500000, -37.000000, 9.109995
11.500000, -36.500000, 8.873981
11.500000, -36.000000, 8.641873
11.500000, -35.500000, 8.413637
11.500000, -35.000000, 8.18924
11.500000, -34.500000, 7.968649
11.500000, -34.000000, 7.751832
11.500000, -33.500000, 7.538757
11.500000, -33.000000, 7.329396
11.500000, -32.500000, 7.123718
11.500000, -32.000000, 6.921696
11.500000, -31.500000, 6.723301
11.500000, -31.000000, 6.528506
11.500000, -30.500000, 6.337287
11.500000, -30.000000, 6.149617
11.500000, -29.500000, 5.965471
11.500000, -29.000000, 5.784826
11.500000, -28.500000, 5.607658
11.500000, -28.000000, 5.433944
11.500000, -27.500000, 5.263663
11.500000, -27.000000, 5.096793
11.500000, -26.500000, 4.933313
