2.500000, -34.500000, 0.0075956
2.500000, -35.000000, 0.0094209
2.500000, -35.500000, 0.0113193
2.500000, -36.000000, 0.0132922
2.500000, -36.500000, 0.0153401
2.500000, -37.000000, 0.0174637
2.500000, -37.500000, 0.0196647
2.500000, -38.000000, 0.021944
2.500000, -38.500000, 0.0243016
2.500000, -39.000000, 0.0267405
2.500000, -39.500000, 0.0292595
2.500000, -40.000000, 0.0318617
2.500000, -40.500000, 0.0345478
2.500000, -41.000000, 0.0373187
2.500000, -41.500000, 0.0401768
2.500000, -42.000000, 0.0431227
2.500000, -42.500000, 0.0461575
2.000000, 42.500000, -0.0699074
2.000000, 42.000000, -0.0712332
2.000000, 41.500000, -0.0724899
2.000000, 41.000000, -0.0736798
2.000000, 40.500000, -0.0748023
2.000000, 40.000000, -0.0758591
2.000000, 39.500000, -0.0768509
2.000000, 39.000000, -0.0777785
2.000000, 38.500000, -0.078643
2.000000, 38.000000, -0.0794453
2.000000, 37.500000, -0.0801864
2.000000, 37.000000, -0.0808652
2.000000, 36.500000, -0.0814837
2.000000, 36.000000, -0.0820426
2.000000, 35.500000, -0.0825427
2.000000, 35.000000, -0.0829835
2.000000, 34.500000, -0.0833664
2.000000, 34.000000, -0.0836915
2.000000, 33.500000, -0.0839598
2.000000, 33.000000, -0.0841711
2.000000, 32.500000, -0.0843258
2.000000, 32.000000, -0.0844241
2.000000, 31.500000, -0.0844678
2.000000, 31.000000, -0.0844557
2.000000, 30.500000, -0.0843887
2.000000, 30.000000, -0.0842669
2.000000, 29.500000, -0.0840918
2.000000, 29.000000, -0.0838624
2.000000, 28.500000, -0.0835794
2.000000, 28.000000, -0.0832431
2.000000, 27.500000, -0.0828544
2.000000, 27.000000, -0.0824127
2.000000, 26.500000, -0.081919
2.000000, 26.000000, -0.0813736
2.000000, 25.500000, -0.0807766
2.000000, 25.000000, -0.0801285
2.000000, 24.500000, -0.0794292
2.000000, 24.000000, -0.0786792
2.000000, 23.500000, -0.0778805
2.000000, 23.000000, -0.0770315
2.000000, 22.500000, -0.0761329
2.000000, 22.000000, -0.0751872
2.000000, 21.500000, -0.074193
2.000000, 21.000000, -0.0731514
2.000000, 20.500000, -0.0720631
2.000000, 20.000000, -0.070929
2.000000, 19.500000, -0.0697505
2.000000, 19.000000, -0.0685273
2.000000, 18.500000, -0.0672607
2.000000, 18.000000, -0.0659522
2.000000, 17.500000, -0.0646026
2.000000, 17.000000, -0.0632143
2.000000, 16.500000, -0.061787
2.000000, 16.000000, -0.0603225
2.000000, 15.500000, -0.0588224
2.000000, 15.000000, -0.0572892
2.000000, 14.500000, -0.055725
2.000000, 14.000000, -0.0541303
2.000000, 13.500000, -0.0525086
2.000000, 13.000000, -0.0508612
2.000000, 12.500000, -0.0491912
2.000000, 12.000000, -0.0475024
2.000000, 11.500000, -0.0457959
2.000000, 11.000000, -0.0440748
2.000000, 10.500000, -0.0423439
2.000000, 10.000000, -0.040605
2.000000, 9.500000, -0.0388624
2.000000, 9.000000, -0.0371206
2.000000, 8.500000, -0.0353824
2.000000, 8.000000, -0.0336519
2.000000, 7.500000, -0.0319346
2.000000, 7.000000, -0.0302342
2.000000, 6.500000, -0.0285555
2.000000, 6.000000, -0.026903
2.000000, 5.500000, -0.0252821
2.000000, 5.000000, -0.0236967
2.000000, 4.500000, -0.022152
2.000000, 4.000000, -0.0206532
2.000000, 3.500000, -0.0192051
2.000000, 3.000000, -0.0178126
2.000000, 2.500000, -0.0164789
2.000000, 2.000000, -0.0152106
2.000000, 1.500000, -0.0140104
2.000000, 1.000000, -0.0128824
2.000000, 0.500000, -0.0118299
2.000000, 0.000000, -0.0108574
2.000000, -0.500000, -0.0099659
2.000000, -1.000000, -0.0091584
2.000000, -1.500000, -0.0084364
2.000000, -2.000000, -0.0078016
2.000000, -2.500000, -0.0072549
2.000000, -3.000000, -0.0067946
2.000000, -3.500000, -0.0064221
2.000000, -4.000000, -0.0061352
2.000000, -4.500000, -0.005932
2.000000, -5.000000, -0.0058097
2.000000, -5.500000, -0.0057671
2.000000, -6.000000, -0.005799
2.000000, -6.500000, -0.0059025
2.000000, -7.000000, -0.0060742
2.000000, -7.500000, -0.0063076
2.000000, -8.000000, -0.0065979
2.000000, -8.500000, -0.0069414
2.000000, -9.000000, -0.0073316
2.000000, -9.500000, -0.0077634
2.000000, -10.000000, -0.008231
2.000000, -10.500000, -0.0087299
2.000000, -11.000000, -0.0092518
2.000000, -11.500000, -0.0097939
2.000000, -12.000000, -0.0103484
2.000000, -12.500000, -0.0109122
2.000000, -13.000000, -0.0114792
2.000000, -13.500000, -0.0120436
2.000000, -14.000000, -0.0126023
2.000000, -14.500000, -0.01315
2.000000, -15.000000, -0.0136812
2.000000, -15.500000, -0.0141944
2.000000, -16.000000, -0.0146835
2.000000, -16.500000, -0.015146
2.000000, -17.000000, -0.0155773
2.000000, -17.500000, -0.0159766
2.000000, -18.000000, -0.0163392
2.000000, -18.500000, -0.0166627
2.000000, -19.000000, -0.0169443
2.000000, -19.500000, -0.0171825
2.000000, -20.000000, -0.017375
2.000000, -20.500000, -0.0175191
2.000000, -21.000000, -0.0176134
2.000000, -21.500000, -0.017657
2.000000, -22.000000, -0.0176482
2.000000, -22.500000, -0.0175849
2.000000, -23.000000, -0.0174655
2.000000, -23.500000, -0.0172905
2.000000, -24.000000, -0.0170572
2.000000, -24.500000, -0.0167652
2.000000, -25.000000, -0.0164135
2.000000, -25.500000, -0.0160016
2.000000, -26.000000, -0.0155276
2.000000, -26.500000, -0.014993
2.000000, -27.000000, -0.0143947
2.000000, -27.500000, -0.0137334
2.000000, -28.000000, -0.0130081
2.000000, -28.500000, -0.0122184
2.000000, -29.000000, -0.0113634
2.000000, -29.500000, -0.0104418
2.000000, -30.000000, -0.0094549
2.000000, -30.500000, -0.0084007
2.000000, -31.000000, -0.0072787
2.000000, -31.500000, -0.0060888
2.000000, -32.000000, -0.0048301
2.000000, -32.500000, -0.0035028
2.000000, -33.000000, -0.0021051
2.000000, -33.500000, -0.0006368
2.000000, -34.000000, 0.0009025
2.000000, -34.500000, 0.0025146
2.000000, -35.000000, 0.0041985
2.000000, -35.500000, 0.0059553
2.000000, -36.000000, 0.0077874
2.000000, -36.500000, 0.0096933
2.000000, -37.000000, 0.0116758
2.000000, -37.500000, 0.0137346
2.000000, -38.000000, 0.0158707
2.000000, -38.500000, 0.018086
2.000000, -39.000000, 0.0203805
2.000000, -39.500000, 0.0227561
2.000000, -40.000000, 0.0252139
2.000000, -40.500000, 0.0277547
2.000000, -41.000000, 0.0303792
2.000000, -41.500000, 0.0330901
2.000000, -42.000000, 0.0358888
2.000000, -42.500000, 0.0387756
1.500000, 42.500000, -0.077747
1.500000, 42.000000, -0.0789254
1.500000, 41.500000, -0.0800359
1.500000, 41.000000, -0.0810797
1.500000, 40.500000, -0.0820583
1.500000, 40.000000, -0.0829723
1.500000, 39.500000, -0.0838215
1.500000, 39.000000, -0.0846088
1.500000, 38.500000, -0.0853332
1.500000, 38.000000, -0.0859957
1.500000, 37.500000, -0.0865972
1.500000, 37.000000, -0.0871388
1.500000, 36.500000, -0.0876203
1.500000, 36.000000, -0.0880417
1.500000, 35.500000, -0.0884054
1.500000, 35.000000, -0.0887113
1.500000, 34.500000, -0.0889585
1.500000, 34.000000, -0.0891484
1.500000, 33.500000, -0.0892819
1.500000, 33.000000, -0.0893598
1.500000, 32.500000, -0.0893804
1.500000, 32.000000, -0.0893451
1.500000, 31.500000, -0.0892557
1.500000, 31.000000, -0.0891108
1.500000, 30.500000, -0.0889105
1.500000, 30.000000, -0.0886569
1.500000, 29.500000, -0.0883484
1.500000, 29.000000, -0.0879861
1.500000, 28.500000, -0.0875707
1.500000, 28.000000, -0.0871026
1.500000, 27.500000, -0.0865815
1.500000, 27.000000, -0.0860069
1.500000, 26.500000, -0.0853807
1.500000, 26.000000, -0.0847025
1.500000, 25.500000, -0.0839722
1.500000, 25.000000, -0.0831913
1.500000, 24.500000, -0.0823588
1.500000, 24.000000, -0.0814762
1.500000, 23.500000, -0.0805433
1.500000, 23.000000, -0.0795607
1.500000, 22.500000, -0.0785282
1.500000, 22.000000, -0.0774481
1.500000, 21.500000, -0.07632
1.500000, 21.000000, -0.0751432
1.500000, 20.500000, -0.0739202
1.500000, 20.000000, -0.0726521
1.500000, 19.500000, -0.0713381
1.500000, 19.000000, -0.0699791
1.500000, 18.500000, -0.0685773
1.500000, 18.000000, -0.0671331
1.500000, 17.500000, -0.0656485
1.500000, 17.000000, -0.0641229
1.500000, 16.500000, -0.0625597
1.500000, 16.000000, -0.0609592
1.500000, 15.500000, -0.0593245
1.500000, 15.000000, -0.0576555
1.500000, 14.500000, -0.0559541
1.500000, 14.000000, -0.0542247
1.500000, 13.500000, -0.0524672
1.500000, 13.000000, -0.0506854
1.500000, 12.500000, -0.0488818
1.500000, 12.000000, -0.047059
1.500000, 11.500000, -0.0452191
1.500000, 11.000000, -0.0433674
1.500000, 10.500000, -0.0415055
1.500000, 10.000000, -0.0396372
1.500000, 9.500000, -0.0377659
1.500000, 9.000000, -0.0358981
1.500000, 8.500000, -0.0340345
1.500000, 8.000000, -0.0321824
1.500000, 7.500000, -0.0303451
1.500000, 7.000000, -0.0285273
1.500000, 6.500000, -0.026734
1.500000, 6.000000, -0.0249704
1.500000, 5.500000, -0.0232412
1.500000, 5.000000, -0.0215522
1.500000, 4.500000, -0.0199084
1.500000, 4.000000, -0.0183144
1.500000, 3.500000, -0.0167766
1.500000, 3.000000, -0.0153002
1.500000, 2.500000, -0.0138883
1.500000, 2.000000, -0.0125484
1.500000, 1.500000, -0.0112824
1.500000, 1.000000, -0.0100961
1.500000, 0.500000, -0.0089931
1.500000, 0.000000, -0.0079768
1.500000, -0.500000, -0.0070511
1.500000, -1.000000, -0.0062171
1.500000, -1.500000, -0.0054774
1.500000, -2.000000, -0.0048334
1.500000, -2.500000, -0.0042863
1.500000, -3.000000, -0.0038352
1.500000, -3.500000, -0.0034806
1.500000, -4.000000, -0.0032204
1.500000, -4.500000, -0.0030534
1.500000, -5.000000, -0.0029772
1.500000, -5.500000, -0.0029882
1.500000, -6.000000, -0.0030834
1.500000, -6.500000, -0.003258
1.500000, -7.000000, -0.0035073
1.500000, -7.500000, -0.0038271
1.500000, -8.000000, -0.0042114
1.500000, -8.500000, -0.0046555
1.500000, -9.000000, -0.0051531
1.500000, -9.500000, -0.0056969
1.500000, -10.000000, -0.0062832
1.500000, -10.500000, -0.0069045
1.500000, -11.000000, -0.0075544
1.500000, -11.500000, -0.0082281
1.500000, -12.000000, -0.008919
1.500000, -12.500000, -0.0096208
1.500000, -13.000000, -0.0103294
1.500000, -13.500000, -0.0110392
1.500000, -14.000000, -0.0117437
1.500000, -14.500000, -0.0124391
1.500000, -15.000000, -0.0131215
1.500000, -15.500000, -0.0137855
1.500000, -16.000000, -0.0144262
1.500000, -16.500000, -0.0150417
1.500000, -17.000000, -0.0156279
1.500000, -17.500000, -0.0161805
1.500000, -18.000000, -0.0166971
1.500000, -18.500000, -0.0171753
1.500000, -19.000000, -0.0176121
1.500000, -19.500000, -0.0180051
1.500000, -20.000000, -0.0183511
1.500000, -20.500000, -0.0186502
1.500000, -21.000000, -0.0188982
1.500000, -21.500000, -0.019095
1.500000, -22.000000, -0.0192381
1.500000, -22.500000, -0.0193272
1.500000, -23.000000, -0.0193607
1.500000, -23.500000, -0.0193363
1.500000, -24.000000, -0.0192532
1.500000, -24.500000, -0.0191118
1.500000, -25.000000, -0.0189103
1.500000, -25.500000, -0.0186472
1.500000, -26.000000, -0.0183225
1.500000, -26.500000, -0.0179347
1.500000, -27.000000, -0.0174849
1.500000, -27.500000, -0.0169705
1.500000, -28.000000, -0.0163916
1.500000, -28.500000, -0.0157477
1.500000, -29.000000, -0.0150391
1.500000, -29.500000, -0.0142634
1.500000, -30.000000, -0.0134209
1.500000, -30.500000, -0.0125115
1.500000, -31.000000, -0.0115338
1.500000, -31.500000, -0.0104887
1.500000, -32.000000, -0.0093741
1.500000, -32.500000, -0.0081904
1.500000, -33.000000, -0.0069368
1.500000, -33.500000, -0.0056119
1.500000, -34.000000, -0.0042164
1.500000, -34.500000, -0.0027495
1.500000, -35.000000, -0.0012093
1.500000, -35.500000, 0.0004036
1.500000, -36.000000, 0.0020913
1.500000, -36.500000, 0.0038527
1.500000, -37.000000, 0.0056902
1.500000, -37.500000, 0.0076038
1.500000, -38.000000, 0.0095943
1.500000, -38.500000, 0.0116628
1.500000, -39.000000, 0.0138112
1.500000, -39.500000, 0.0160395
1.500000, -40.000000, 0.0183487
1.500000, -40.500000, 0.0207407
1.500000, -41.000000, 0.0232163
1.500000, -41.500000, 0.0257771
1.500000, -42.000000, 0.0284236
1.500000, -42.500000, 0.031158
1.000000, 42.500000, -0.0858249
1.000000, 42.000000, -0.0868515
1.000000, 41.500000, -0.0878127
1.000000, 41.000000, -0.0887086
1.000000, 40.500000, -0.0895396
1.000000, 40.000000, -0.0903065
1.000000, 39.500000, -0.091011
1.000000, 39.000000, -0.0916541
1.000000, 38.500000, -0.0922347
1.000000, 38.000000, -0.0927549
1.000000, 37.500000, -0.0932146
1.000000, 37.000000, -0.0936149
1.000000, 36.500000, -0.0939566
1.000000, 36.000000, -0.0942386
1.000000, 35.500000, -0.0944636
1.000000, 35.000000, -0.0946301
1.000000, 34.500000, -0.0947397
1.000000, 34.000000, -0.0947924
1.000000, 33.500000, -0.0947893
1.000000, 33.000000, -0.0947301
1.000000, 32.500000, -0.0946143
1.000000, 32.000000, -0.0944441
1.000000, 31.500000, -0.0942184
1.000000, 31.000000, -0.0939378
1.000000, 30.500000, -0.0936035
1.000000, 30.000000, -0.0932144
1.000000, 29.500000, -0.0927711
1.000000, 29.000000, -0.0922746
1.000000, 28.500000, -0.0917246
1.000000, 28.000000, -0.0911225
1.000000, 27.500000, -0.0904661
1.000000, 27.000000, -0.0897579
1.000000, 26.500000, -0.0889968
1.000000, 26.000000, -0.0881842
1.000000, 25.500000, -0.0873203
1.000000, 25.000000, -0.0864044
1.000000, 24.500000, -0.0854376
1.000000, 24.000000, -0.0844193
1.000000, 23.500000, -0.0833525
1.000000, 23.000000, -0.0822347
1.000000, 22.500000, -0.0810676
1.000000, 22.000000, -0.0798516
1.000000, 21.500000, -0.0785883
1.000000, 21.000000, -0.0772761
1.000000, 20.500000, -0.0759174
1.000000, 20.000000, -0.0745132
1.000000, 19.500000, -0.0730629
1.000000, 19.000000, -0.0715683
1.000000, 18.500000, -0.0700305
1.000000, 18.000000, -0.0684502
1.000000, 17.500000, -0.0668282
1.000000, 17.000000, -0.0651668
1.000000, 16.500000, -0.0634667
1.000000, 16.000000, -0.0617299
1.000000, 15.500000, -0.0599577
1.000000, 15.000000, -0.0581529
1.000000, 14.500000, -0.0563165
1.000000, 14.000000, -0.0544509
1.000000, 13.500000, -0.0525578
1.000000, 13.000000, -0.0506413
1.000000, 12.500000, -0.0487026
1.000000, 12.000000, -0.0467456
1.000000, 11.500000, -0.0447732
1.000000, 11.000000, -0.0427887
1.000000, 10.500000, -0.0407947
1.000000, 10.000000, -0.0387972
1.000000, 9.500000, -0.0367974
1.000000, 9.000000, -0.0348018
1.000000, 8.500000, -0.0328143
1.000000, 8.000000, -0.030838
1.000000, 7.500000, -0.0288802
1.000000, 7.000000, -0.0269437
1.000000, 6.500000, -0.0250355
1.000000, 6.000000, -0.0231588
1.000000, 5.500000, -0.0213213
1.000000, 5.000000, -0.0195276
1.000000, 4.500000, -0.017783
1.000000, 4.000000, -0.0160939
1.000000, 3.500000, -0.0144649
1.000000, 3.000000, -0.0129019
1.000000, 2.500000, -0.0114113
1.000000, 2.000000, -0.0099964
1.000000, 1.500000, -0.0086641
1.000000, 1.000000, -0.0074185
1.000000, 0.500000, -0.0062628
1.000000, 0.000000, -0.0052016
1.000000, -0.500000, -0.0042388
1.000000, -1.000000, -0.0033765
1.000000, -1.500000, -0.0026171
1.000000, -2.000000, -0.0019624
1.000000, -2.500000, -0.0014133
1.000000, -3.000000, -0.0009709
1.000000, -3.500000, -0.0006329
1.000000, -4.000000, -0.0003989
1.000000, -4.500000, -0.000268
1.000000, -5.000000, -0.0002356
1.000000, -5.500000, -0.0003003
1.000000, -6.000000, -0.0004578
1.000000, -6.500000, -0.0007035
1.000000, -7.000000, -0.0010317
1.000000, -7.500000, -0.0014382
1.000000, -8.000000, -0.001917
1.000000, -8.500000, -0.0024613
1.000000, -9.000000, -0.0030658
1.000000, -9.500000, -0.0037234
1.000000, -10.000000, -0.0044282
1.000000, -10.500000, -0.0051737
1.000000, -11.000000, -0.0059527
1.000000, -11.500000, -0.0067592
1.000000, -12.000000, -0.0075856
1.000000, -12.500000, -0.0084286
1.000000, -13.000000, -0.0092793
1.000000, -13.500000, -0.0101338
1.000000, -14.000000, -0.0109869
1.000000, -14.500000, -0.0118315
1.000000, -15.000000, -0.0126649
1.000000, -15.500000, -0.0134807
1.000000, -16.000000, -0.0142759
1.000000, -16.500000, -0.0150457
1.000000, -17.000000, -0.0157858
1.000000, -17.500000, -0.0164942
1.000000, -18.000000, -0.0171672
1.000000, -18.500000, -0.0178005
1.000000, -19.000000, -0.0183933
1.000000, -19.500000, -0.0189419
1.000000, -20.000000, -0.0194442
1.000000, -20.500000, -0.0198974
1.000000, -21.000000, -0.0203011
1.000000, -21.500000, -0.0206523
1.000000, -22.000000, -0.0209506
1.000000, -22.500000, -0.0211926
1.000000, -23.000000, -0.0213787
1.000000, -23.500000, -0.0215075
1.000000, -24.000000, -0.0215773
1.000000, -24.500000, -0.0215876
1.000000, -25.000000, -0.0215374
1.000000, -25.500000, -0.0214253
1.000000, -26.000000, -0.0212502
1.000000, -26.500000, -0.0210128
1.000000, -27.000000, -0.0207119
1.000000, -27.500000, -0.0203471
1.000000, -28.000000, -0.0199165
1.000000, -28.500000, -0.0194216
1.000000, -29.000000, -0.0188596
1.000000, -29.500000, -0.0182321
1.000000, -30.000000, -0.0175364
1.000000, -30.500000, -0.0167745
1.000000, -31.000000, -0.0159438
1.000000, -31.500000, -0.0150444
1.000000, -32.000000, -0.0140771
1.000000, -32.500000, -0.0130393
1.000000, -33.000000, -0.0119321
1.000000, -33.500000, -0.0107543
1.000000, -34.000000, -0.0095054
1.000000, -34.500000, -0.0081837
1.000000, -35.000000, -0.0067911
1.000000, -35.500000, -0.0053246
1.000000, -36.000000, -0.0037846
1.000000, -36.500000, -0.0021706
1.000000, -37.000000, -0.0004809
1.000000, -37.500000, 0.0012844
1.000000, -38.000000, 0.0031261
1.000000, -38.500000, 0.0050463
1.000000, -39.000000, 0.0070439
1.000000, -39.500000, 0.009122
1.000000, -40.000000, 0.0112805
1.000000, -40.500000, 0.0135204
1.000000, -41.000000, 0.0158434
1.000000, -41.500000, 0.0182503
1.000000, -42.000000, 0.0207425
1.000000, -42.500000, 0.0233211
0.500000, 42.500000, -0.094129
0.500000, 42.000000, -0.0950016
0.500000, 41.500000, -0.0958094
0.500000, 41.000000, -0.0965525
0.500000, 40.500000, -0.0972334
0.500000, 40.000000, -0.0978508
0.500000, 39.500000, -0.0984075
0.500000, 39.000000, -0.0989025
0.500000, 38.500000, -0.0993366
0.500000, 38.000000, -0.099712
0.500000, 37.500000, -0.1000266
0.500000, 37.000000, -0.1002834
0.500000, 36.500000, -0.1004814
0.500000, 36.000000, -0.1006225
0.500000, 35.500000, -0.1007052
0.500000, 35.000000, -0.1007312
0.500000, 34.500000, -0.1007009
0.500000, 34.000000, -0.1006135
0.500000, 33.500000, -0.100471
0.500000, 33.000000, -0.1002722
0.500000, 32.500000, -0.1000196
0.500000, 32.000000, -0.0997102
0.500000, 31.500000, -0.0993472
0.500000, 31.000000, -0.0989299
0.500000, 30.500000, -0.0984578
0.500000, 30.000000, -0.0979317
0.500000, 29.500000, -0.097353
0.500000, 29.000000, -0.09672
0.500000, 28.500000, -0.0960333
0.500000, 28.000000, -0.0952942
0.500000, 27.500000, -0.0945027
0.500000, 27.000000, -0.093658
0.500000, 26.500000, -0.0927613
0.500000, 26.000000, -0.091813
0.500000, 25.500000, -0.090813
0.500000, 25.000000, -0.0897619
0.500000, 24.500000, -0.0886587
0.500000, 24.000000, -0.0875059
0.500000, 23.500000, -0.0863024
0.500000, 23.000000, -0.0850485
0.500000, 22.500000, -0.0837453
0.500000, 22.000000, -0.082394
0.500000, 21.500000, -0.0809933
0.500000, 21.000000, -0.0795453
0.500000, 20.500000, -0.0780507
0.500000, 20.000000, -0.0765095
0.500000, 19.500000, -0.074923
0.500000, 19.000000, -0.0732911
0.500000, 18.500000, -0.0716168
0.500000, 18.000000, -0.0698997
0.500000, 17.500000, -0.0681409
0.500000, 17.000000, -0.0663425
0.500000, 16.500000, -0.0645062
0.500000, 16.000000, -0.062632
0.500000, 15.500000, -0.0607244
0.500000, 15.000000, -0.0587819
0.500000, 14.500000, -0.0568097
0.500000, 14.000000, -0.0548081
0.500000, 13.500000, -0.0527799
0.500000, 13.000000, -0.0507281
0.500000, 12.500000, -0.048655
0.500000, 12.000000, -0.0465634
0.500000, 11.500000, -0.0444583
0.500000, 11.000000, -0.0423409
0.500000, 10.500000, -0.0402159
0.500000, 10.000000, -0.0380873
0.500000, 9.500000, -0.0359602
0.500000, 9.000000, -0.0338372
0.500000, 8.500000, -0.0317231
0.500000, 8.000000, -0.029624
0.500000, 7.500000, -0.0275444
0.500000, 7.000000, -0.0254899
0.500000, 6.500000, -0.0234655
0.500000, 6.000000, -0.0214765
0.500000, 5.500000, -0.0195295
0.500000, 5.000000, -0.0176303
0.500000, 4.500000, -0.0157841
0.500000, 4.000000, -0.0139971
0.500000, 3.500000, -0.0122761
0.500000, 3.000000, -0.010627
0.500000, 2.500000, -0.0090541
0.500000, 2.000000, -0.0075649
0.500000, 1.500000, -0.0061641
0.500000, 1.000000, -0.0048568
0.500000, 0.500000, -0.0036472
0.500000, 0.000000, -0.0025391
0.500000, -0.500000, -0.0015382
0.500000, -1.000000, -0.0006468
0.500000, -1.500000, 0.0001339
0.500000, -2.000000, 0.0008011
0.500000, -2.500000, 0.0013529
0.500000, -3.000000, 0.001789
0.500000, -3.500000, 0.0021119
0.500000, -4.000000, 0.0023199
0.500000, -4.500000, 0.0024169
0.500000, -5.000000, 0.0024047
0.500000, -5.500000, 0.0022875
0.500000, -6.000000, 0.0020685
0.500000, -6.500000, 0.0017525
0.500000, -7.000000, 0.0013451
0.500000, -7.500000, 0.0008526
0.500000, -8.000000, 0.00028
0.500000, -8.500000, -0.0003661
0.500000, -9.000000, -0.0010782
0.500000, -9.500000, -0.0018492
0.500000, -10.000000, -0.0026733
0.500000, -10.500000, -0.0035429
0.500000, -11.000000, -0.0044509
0.500000, -11.500000, -0.0053913
0.500000, -12.000000, -0.0063554
0.500000, -12.500000, -0.007338
0.500000, -13.000000, -0.0083331
0.500000, -13.500000, -0.0093339
0.500000, -14.000000, -0.0103341
0.500000, -14.500000, -0.0113297
0.500000, -15.000000, -0.0123139
0.500000, -15.500000, -0.0132834
0.500000, -16.000000, -0.014233
0.500000, -16.500000, -0.0151572
0.500000, -17.000000, -0.0160535
0.500000, -17.500000, -0.0169179
0.500000, -18.000000, -0.0177467
0.500000, -18.500000, -0.0185378
0.500000, -19.000000, -0.0192871
0.500000, -19.500000, -0.019992
0.500000, -20.000000, -0.0206505
0.500000, -20.500000, -0.0212607
0.500000, -21.000000, -0.0218203
0.500000, -21.500000, -0.0223273
0.500000, -22.000000, -0.02278
0.500000, -22.500000, -0.0231773
0.500000, -23.000000, -0.0235185
0.500000, -23.500000, -0.0238014
0.500000, -24.000000, -0.0240239
0.500000, -24.500000, -0.0241877
0.500000, -25.000000, -0.0242899
0.500000, -25.500000, -0.02433
0.500000, -26.000000, -0.024307
0.500000, -26.500000, -0.0242213
0.500000, -27.000000, -0.024071
0.500000, -27.500000, -0.0238567
0.500000, -28.000000, -0.0235762
0.500000, -28.500000, -0.0232313
0.500000, -29.000000, -0.022819
0.500000, -29.500000, -0.02234
0.500000, -30.000000, -0.0217947
0.500000, -30.500000, -0.0211808
0.500000, -31.000000, -0.0204989
0.500000, -31.500000, -0.0197492
0.500000, -32.000000, -0.0189302
0.500000, -32.500000, -0.0180416
0.500000, -33.000000, -0.0170822
0.500000, -33.500000, -0.016053
0.500000, -34.000000, -0.0149525
0.500000, -34.500000, -0.0137809
0.500000, -35.000000, -0.0125372
0.500000, -35.500000, -0.0112202
0.500000, -36.000000, -0.0098295
0.500000, -36.500000, -0.0083654
0.500000, -37.000000, -0.0068264
0.500000, -37.500000, -0.0052126
0.500000, -38.000000, -0.003522
0.500000, -38.500000, -0.0017546
0.500000, -39.000000, 9.15e-05
0.500000, -39.500000, 0.0020155
0.500000, -40.000000, 0.0040202
0.500000, -40.500000, 0.0061046
0.500000, -41.000000, 0.0082715
0.500000, -41.500000, 0.0105216
0.500000, -42.000000, 0.0128564
0.500000, -42.500000, 0.015276
0.000000, 42.500000, -0.1026458
0.000000, 42.000000, -0.1033601
0.000000, 41.500000, -0.1040123
0.000000, 41.000000, -0.1046009
0.000000, 40.500000, -0.1051281
0.000000, 40.000000, -0.1055937
0.000000, 39.500000, -0.1059984
0.000000, 39.000000, -0.1063433
0.000000, 38.500000, -0.1066293
0.000000, 38.000000, -0.1068554
0.000000, 37.500000, -0.1070237
0.000000, 37.000000, -0.107134
0.000000, 36.500000, -0.1071875
0.000000, 36.000000, -0.1071828
0.000000, 35.500000, -0.1071218
0.000000, 35.000000, -0.1070049
0.000000, 34.500000, -0.1068317
0.000000, 34.000000, -0.1066023
0.000000, 33.500000, -0.1063187
0.000000, 33.000000, -0.1059787
0.000000, 32.500000, -0.1055847
0.000000, 32.000000, -0.105137
0.000000, 31.500000, -0.1046335
0.000000, 31.000000, -0.1040767
0.000000, 30.500000, -0.103466
0.000000, 30.000000, -0.1028021
0.000000, 29.500000, -0.1020847
0.000000, 29.000000, -0.1013138
0.000000, 28.500000, -0.1004892
0.000000, 28.000000, -0.0996132
0.000000, 27.500000, -0.0986835
0.000000, 27.000000, -0.0977018
0.000000, 26.500000, -0.0966689
0.000000, 26.000000, -0.0955833
0.000000, 25.500000, -0.094446
0.000000, 25.000000, -0.0932575
0.000000, 24.500000, -0.0920178
0.000000, 24.000000, -0.0907285
0.000000, 23.500000, -0.0893873
0.000000, 23.000000, -0.0879969
0.000000, 22.500000, -0.0865579
0.000000, 22.000000, -0.0850688
0.000000, 21.500000, -0.0835323
0.000000, 21.000000, -0.0819474
0.000000, 20.500000, -0.0803159
0.000000, 20.000000, -0.0786377
0.000000, 19.500000, -0.0769141
0.000000, 19.000000, -0.075146
0.000000, 18.500000, -0.0733336
0.000000, 18.000000, -0.0714803
0.000000, 17.500000, -0.0695842
0.000000, 17.000000, -0.0676494
0.000000, 16.500000, -0.0656757
0.000000, 16.000000, -0.0636661
0.000000, 15.500000, -0.061621
0.000000, 15.000000, -0.059543
0.000000, 14.500000, -0.0574341
0.000000, 14.000000, -0.0552969
0.000000, 13.500000, -0.053133
0.000000, 13.000000, -0.0509464
0.000000, 12.500000, -0.0487395
0.000000, 12.000000, -0.0465141
0.000000, 11.500000, -0.044276
0.000000, 11.000000, -0.0420267
0.000000, 10.500000, -0.0397707
0.000000, 10.000000, -0.037513
0.000000, 9.500000, -0.0352568
0.000000, 9.000000, -0.0330067
0.000000, 8.500000, -0.0307674
0.000000, 8.000000, -0.0285451
0.000000, 7.500000, -0.0263441
0.000000, 7.000000, -0.0241703
0.000000, 6.500000, -0.0220296
0.000000, 6.000000, -0.0199282
0.000000, 5.500000, -0.0178707
0.000000, 5.000000, -0.015865
0.000000, 4.500000, -0.0139171
0.000000, 4.000000, -0.0120325
0.000000, 3.500000, -0.0102189
0.000000, 3.000000, -0.0084811
0.000000, 2.500000, -0.0068274
0.000000, 2.000000, -0.0052614
0.000000, 1.500000, -0.0037908
0.000000, 1.000000, -0.0024206
0.000000, 0.500000, -0.0011551
0.000000, 0.000000, 0.0
0.000000, -0.500000, 0.0010409
0.000000, -1.000000, 0.0019644
0.000000, -1.500000, 0.0027672
0.000000, -2.000000, 0.0034476
0.000000, -2.500000, 0.0040036
0.000000, -3.000000, 0.0044359
0.000000, -3.500000, 0.0047431
0.000000, -4.000000, 0.0049275
0.000000, -4.500000, 0.0049909
0.000000, -5.000000, 0.004936
0.000000, -5.500000, 0.0047663
0.000000, -6.000000, 0.0044868
0.000000, -6.500000, 0.0041014
0.000000, -7.000000, 0.0036157
0.000000, -7.500000, 0.0030369
0.000000, -8.000000, 0.0023699
0.000000, -8.500000, 0.0016236
0.000000, -9.000000, 0.0008033
0.000000, -9.500000, -8.18e-05
0.000000, -10.000000, -0.001025
0.000000, -10.500000, -0.0020197
0.000000, -11.000000, -0.0030567
0.000000, -11.500000, -0.00413
0.000000, -12.000000, -0.0052321
0.000000, -12.500000, -0.0063555
0.000000, -13.000000, -0.0074944
0.000000, -13.500000, -0.008641
0.000000, -14.000000, -0.0097909
0.000000, -14.500000, -0.0109361
0.000000, -15.000000, -0.012073
0.000000, -15.500000, -0.013196
0.000000, -16.000000, -0.0142991
0.000000, -16.500000, -0.0153797
0.000000, -17.000000, -0.0164324
0.000000, -17.500000, -0.0174532
0.000000, -18.000000, -0.0184393
0.000000, -18.500000, -0.0193866
0.000000, -19.000000, -0.020293
0.000000, -19.500000, -0.0211551
0.000000, -20.000000, -0.0219707
0.000000, -20.500000, -0.0227379
0.000000, -21.000000, -0.0234534
0.000000, -21.500000, -0.0241173
0.000000, -22.000000, -0.0247258
0.000000, -22.500000, -0.0252789
0.000000, -23.000000, -0.0257749
0.000000, -23.500000, -0.0262123
0.000000, -24.000000, -0.0265905
0.000000, -24.500000, -0.0269078
0.000000, -25.000000, -0.0271635
0.000000, -25.500000, -0.027357
0.000000, -26.000000, -0.0274873
0.000000, -26.500000, -0.0275539
0.000000, -27.000000, -0.0275568
0.000000, -27.500000, -0.0274935
0.000000, -28.000000, -0.0273652
0.000000, -28.500000, -0.0271712
0.000000, -29.000000, -0.0269108
0.000000, -29.500000, -0.0265827
0.000000, -30.000000, -0.0261871
0.000000, -30.500000, -0.025725
0.000000, -31.000000, -0.0251937
0.000000, -31.500000, -0.0245945
0.000000, -32.000000, -0.023925
0.000000, -32.500000, -0.0231867
0.000000, -33.000000, -0.0223787
0.000000, -33.500000, -0.0215007
0.000000, -34.000000, -0.0205513
0.000000, -34.500000, -0.0195307
0.000000, -35.000000, -0.0184379
0.000000, -35.500000, -0.0172728
0.000000, -36.000000, -0.0160348
0.000000, -36.500000, -0.0147225
0.000000, -37.000000, -0.013337
0.000000, -37.500000, -0.0118767
0.000000, -38.000000, -0.0103394
0.000000, -38.500000, -0.0087273
0.000000, -39.000000, -0.0070363
0.000000, -39.500000, -0.0052684
0.000000, -40.000000, -0.0034217
0.000000, -40.500000, -0.0014941
0.000000, -41.000000, 0.0005141
0.000000, -41.500000, 0.0026037
0.000000, -42.000000, 0.0047779
0.000000, -42.500000, 0.0070352
-0.500000, 42.500000, -0.111365
-0.500000, 42.000000, -0.1119186
-0.500000, 41.500000, -0.1124114
-0.500000, 41.000000, -0.1128425
-0.500000, 40.500000, -0.1132134
-0.500000, 40.000000, -0.1135238
-0.500000, 39.500000, -0.1137745
-0.500000, 39.000000, -0.1139675
-0.500000, 38.500000, -0.1141006
-0.500000, 38.000000, -0.114177
-0.500000, 37.500000, -0.1141956
-0.500000, 37.000000, -0.1141574
-0.500000, 36.500000, -0.1140624
-0.500000, 36.000000, -0.1139115
-0.500000, 35.500000, -0.1137042
-0.500000, 35.000000, -0.1134412
-0.500000, 34.500000, -0.1131239
-0.500000, 34.000000, -0.1127505
-0.500000, 33.500000, -0.112323
-0.500000, 33.000000, -0.1118412
-0.500000, 32.500000, -0.1113046
-0.500000, 32.000000, -0.1107142
-0.500000, 31.500000, -0.1100702
-0.500000, 31.000000, -0.1093729
-0.500000, 30.500000, -0.1086218
-0.500000, 30.000000, -0.1078177
-0.500000, 29.500000, -0.10696
-0.500000, 29.000000, -0.10605
-0.500000, 28.500000, -0.1050873
-0.500000, 28.000000, -0.1040712
-0.500000, 27.500000, -0.1030037
-0.500000, 27.000000, -0.101884
-0.500000, 26.500000, -0.1007123
-0.500000, 26.000000, -0.099488
-0.500000, 25.500000, -0.098213
-0.500000, 25.000000, -0.0968869
-0.500000, 24.500000, -0.0955107
-0.500000, 24.000000, -0.0940829
-0.500000, 23.500000, -0.0926054
-0.500000, 23.000000, -0.0910775
-0.500000, 22.500000, -0.0895003
-0.500000, 22.000000, -0.087875
-0.500000, 21.500000, -0.0862003
-0.500000, 21.000000, -0.0844783
-0.500000, 20.500000, -0.0827097
-0.500000, 20.000000, -0.0808945
-0.500000, 19.500000, -0.079034
-0.500000, 19.000000, -0.0771291
-0.500000, 18.500000, -0.0751808
-0.500000, 18.000000, -0.0731897
-0.500000, 17.500000, -0.0711579
-0.500000, 17.000000, -0.0690865
-0.500000, 16.500000, -0.0669762
-0.500000, 16.000000, -0.06483
-0.500000, 15.500000, -0.0626484
-0.500000, 15.000000, -0.0604349
-0.500000, 14.500000, -0.0581907
-0.500000, 14.000000, -0.0559181
-0.500000, 13.500000, -0.0536199
-0.500000, 13.000000, -0.0512991
-0.500000, 12.500000, -0.048958
-0.500000, 12.000000, -0.0466004
-0.500000, 11.500000, -0.0442293
-0.500000, 11.000000, -0.0418489
-0.500000, 10.500000, -0.0394629
-0.500000, 10.000000, -0.0370753
-0.500000, 9.500000, -0.0346912
-0.500000, 9.000000, -0.0323142
-0.500000, 8.500000, -0.0299511
-0.500000, 8.000000, -0.027605
-0.500000, 7.500000, -0.0252834
-0.500000, 7.000000, -0.0229909
-0.500000, 6.500000, -0.0207345
-0.500000, 6.000000, -0.0185195
-0.500000, 5.500000, -0.0163525
-0.500000, 5.000000, -0.0142413
-0.500000, 4.500000, -0.0121901
-0.500000, 4.000000, -0.0102081
-0.500000, 3.500000, -0.0083001
-0.500000, 3.000000, -0.006474
-0.500000, 2.500000, -0.0047371
-0.500000, 2.000000, -0.0030949
-0.500000, 1.500000, -0.0015531
-0.500000, 1.000000, -0.0001188
-0.500000, 0.500000, 0.0012038
-0.500000, 0.000000, 0.0024079
-0.500000, -0.500000, 0.0034898
-0.500000, -1.000000, 0.0044462
-0.500000, -1.500000, 0.0052729
-0.500000, -2.000000, 0.0059681
-0.500000, -2.500000, 0.0065309
-0.500000, -3.000000, 0.006959
-0.500000, -3.500000, 0.0072529
-0.500000, -4.000000, 0.0074149
-0.500000, -4.500000, 0.0074459
-0.500000, -5.000000, 0.0073497
-0.500000, -5.500000, 0.0071285
-0.500000, -6.000000, 0.0067885
-0.500000, -6.500000, 0.0063335
-0.500000, -7.000000, 0.0057701
-0.500000, -7.500000, 0.0051056
-0.500000, -8.000000, 0.004346
-0.500000, -8.500000, 0.0034989
-0.500000, -9.000000, 0.0025718
-0.500000, -9.500000, 0.0015728
-0.500000, -10.000000, 0.0005097
-0.500000, -10.500000, -0.0006089
-0.500000, -11.000000, -0.0017749
-0.500000, -11.500000, -0.0029823
-0.500000, -12.000000, -0.0042214
-0.500000, -12.500000, -0.005486
-0.500000, -13.000000, -0.0067681
-0.500000, -13.500000, -0.0080619
-0.500000, -14.000000, -0.0093591
-0.500000, -14.500000, -0.0106557
-0.500000, -15.000000, -0.0119449
-0.500000, -15.500000, -0.0132204
-0.500000, -16.000000, -0.014479
-0.500000, -16.500000, -0.0157142
-0.500000, -17.000000, -0.0169225
-0.500000, -17.500000, -0.0181009
-0.500000, -18.000000, -0.0192437
-0.500000, -18.500000, -0.0203478
-0.500000, -19.000000, -0.0214111
-0.500000, -19.500000, -0.022431
-0.500000, -20.000000, -0.0234035
-0.500000, -20.500000, -0.0243277
-0.500000, -21.000000, -0.0252013
-0.500000, -21.500000, -0.0260213
-0.500000, -22.000000, -0.026786
-0.500000, -22.500000, -0.0274953
-0.500000, -23.000000, -0.0281475
-0.500000, -23.500000, -0.0287404
-0.500000, -24.000000, -0.0292729
-0.500000, -24.500000, -0.0297457
-0.500000, -25.000000, -0.0301559
-0.500000, -25.500000, -0.030503
-0.500000, -26.000000, -0.030787
-0.500000, -26.500000, -0.0310073
-0.500000, -27.000000, -0.031163
-0.500000, -27.500000, -0.0312537
-0.500000, -28.000000, -0.0312782
-0.500000, -28.500000, -0.0312363
-0.500000, -29.000000, -0.031128
-0.500000, -29.500000, -0.030952
-0.500000, -30.000000, -0.0307097
-0.500000, -30.500000, -0.0303988
-0.500000, -31.000000, -0.0300199
-0.500000, -31.500000, -0.0295722
-0.500000, -32.000000, -0.0290562
-0.500000, -32.500000, -0.0284706
-0.500000, -33.000000, -0.0278142
-0.500000, -33.500000, -0.027088
-0.500000, -34.000000, -0.0262915
-0.500000, -34.500000, -0.0254239
-0.500000, -35.000000, -0.0244852
-0.500000, -35.500000, -0.0234742
-0.500000, -36.000000, -0.0223905
-0.500000, -36.500000, -0.0212334
-0.500000, -37.000000, -0.0200024
-0.500000, -37.500000, -0.0186976
-0.500000, -38.000000, -0.017318
-0.500000, -38.500000, -0.0158616
-0.500000, -39.000000, -0.0143295
-0.500000, -39.500000, -0.0127205
-0.500000, -40.000000, -0.0110328
-0.500000, -40.500000, -0.0092664
-0.500000, -41.000000, -0.0074195
-0.500000, -41.500000, -0.0054924
-0.500000, -42.000000, -0.0034826
-0.500000, -42.500000, -0.00139
-1.000000, 42.500000, -0.1202749
-1.000000, 42.000000, -0.1206665
-1.000000, 41.500000, -0.1209967
-1.000000, 41.000000, -0.1212676
-1.000000, 40.500000, -0.1214796
-1.000000, 40.000000, -0.1216325
-1.000000, 39.500000, -0.121727
-1.000000, 39.000000, -0.1217641
-1.000000, 38.500000, -0.1217437
-1.000000, 38.000000, -0.1216669
-1.000000, 37.500000, -0.1215336
-1.000000, 37.000000, -0.1213439
-1.000000, 36.500000, -0.1210996
-1.000000, 36.000000, -0.1207986
-1.000000, 35.500000, -0.1204436
-1.000000, 35.000000, -0.1200331
-1.000000, 34.500000, -0.1195687
-1.000000, 34.000000, -0.1190504
-1.000000, 33.500000, -0.1184773
-1.000000, 33.000000, -0.1178511
-1.000000, 32.500000, -0.1171703
-1.000000, 32.000000, -0.1164371
-1.000000, 31.500000, -0.1156504
-1.000000, 31.000000, -0.1148098
-1.000000, 30.500000, -0.1139175
-1.000000, 30.000000, -0.1129714
-1.000000, 29.500000, -0.1119731
-1.000000, 29.000000, -0.1109226
-1.000000, 28.500000, -0.1098196
-1.000000, 28.000000, -0.1086635
-1.000000, 27.500000, -0.1074561
-1.000000, 27.000000, -0.1061969
-1.000000, 26.500000, -0.1048868
-1.000000, 26.000000, -0.1035242
-1.000000, 25.500000, -0.1021103
-1.000000, 25.000000, -0.1006464
-1.000000, 24.500000, -0.0991316
-1.000000, 24.000000, -0.0975653
-1.000000, 23.500000, -0.0959495
-1.000000, 23.000000, -0.0942847
-1.000000, 22.500000, -0.0925706
-1.000000, 22.000000, -0.0908066
-1.000000, 21.500000, -0.0889953
-1.000000, 21.000000, -0.0871361
-1.000000, 20.500000, -0.0852304
-1.000000, 20.000000, -0.0832782
-1.000000, 19.500000, -0.0812809
-1.000000, 19.000000, -0.0792393
-1.000000, 18.500000, -0.0771545
-1.000000, 18.000000, -0.0750272
-1.000000, 17.500000, -0.0728592
-1.000000, 17.000000, -0.0706508
-1.000000, 16.500000, -0.0684057
-1.000000, 16.000000, -0.0661239
-1.000000, 15.500000, -0.0638067
-1.000000, 15.000000, -0.0614579
-1.000000, 14.500000, -0.0590795
-1.000000, 14.000000, -0.0566729
-1.000000, 13.500000, -0.0542408
-1.000000, 13.000000, -0.0517863
-1.000000, 12.500000, -0.0493126
-1.000000, 12.000000, -0.0468226
-1.000000, 11.500000, -0.0443202
-1.000000, 11.000000, -0.0418097
-1.000000, 10.500000, -0.0392937
-1.000000, 10.000000, -0.0367782
-1.000000, 9.500000, -0.0342664
-1.000000, 9.000000, -0.0317648
-1.000000, 8.500000, -0.0292773
-1.000000, 8.000000, -0.026809
-1.000000, 7.500000, -0.0243672
-1.000000, 7.000000, -0.0219577
-1.000000, 6.500000, -0.0195855
-1.000000, 6.000000, -0.0172578
-1.000000, 5.500000, -0.0149813
-1.000000, 5.000000, -0.0127626
-1.000000, 4.500000, -0.01061
-1.000000, 4.000000, -0.0085289
-1.000000, 3.500000, -0.0065279
-1.000000, 3.000000, -0.0046129
-1.000000, 2.500000, -0.0027923
-1.000000, 2.000000, -0.0010724
-1.000000, 1.500000, 0.0005409
-1.000000, 1.000000, 0.0020405
-1.000000, 0.500000, 0.0034202
-1.000000, 0.000000, 0.0046744
-1.000000, -0.500000, 0.0057992
-1.000000, -1.000000, 0.0067895
-1.000000, -1.500000, 0.0076419
-1.000000, -2.000000, 0.0083536
-1.000000, -2.500000, 0.0089227
-1.000000, -3.000000, 0.0093491
-1.000000, -3.500000, 0.0096311
-1.000000, -4.000000, 0.0097721
-1.000000, -4.500000, 0.009772
-1.000000, -5.000000, 0.0096344
-1.000000, -5.500000, 0.0093637
-1.000000, -6.000000, 0.0089642
-1.000000, -6.500000, 0.0084415
-1.000000, -7.000000, 0.0078013
-1.000000, -7.500000, 0.0070518
-1.000000, -8.000000, 0.0062
-1.000000, -8.500000, 0.0052527
-1.000000, -9.000000, 0.0042192
-1.000000, -9.500000, 0.0031066
-1.000000, -10.000000, 0.0019248
-1.000000, -10.500000, 0.0006823
-1.000000, -11.000000, -0.0006137
-1.000000, -11.500000, -0.0019532
-1.000000, -12.000000, -0.0033296
-1.000000, -12.500000, -0.0047346
-1.000000, -13.000000, -0.0061603
-1.000000, -13.500000, -0.0075988
-1.000000, -14.000000, -0.0090449
-1.000000, -14.500000, -0.0104915
-1.000000, -15.000000, -0.0119319
-1.000000, -15.500000, -0.0133617
-1.000000, -16.000000, -0.0147739
-1.000000, -16.500000, -0.0161637
-1.000000, -17.000000, -0.0175278
-1.000000, -17.500000, -0.0188622
-1.000000, -18.000000, -0.0201612
-1.000000, -18.500000, -0.0214225
-1.000000, -19.000000, -0.0226433
-1.000000, -19.500000, -0.0238199
-1.000000, -20.000000, -0.0249502
-1.000000, -20.500000, -0.0260314
-1.000000, -21.000000, -0.0270611
-1.000000, -21.500000, -0.0280373
-1.000000, -22.000000, -0.0289596
-1.000000, -22.500000, -0.0298246
-1.000000, -23.000000, -0.0306327
-1.000000, -23.500000, -0.0313815
-1.000000, -24.000000, -0.0320693
-1.000000, -24.500000, -0.0326966
-1.000000, -25.000000, -0.0332624
-1.000000, -25.500000, -0.0337643
-1.000000, -26.000000, -0.0342032
-1.000000, -26.500000, -0.0345768
-1.000000, -27.000000, -0.0348869
-1.000000, -27.500000, -0.0351311
-1.000000, -28.000000, -0.0353085
-1.000000, -28.500000, -0.0354206
-1.000000, -29.000000, -0.0354666
-1.000000, -29.500000, -0.0354441
-1.000000, -30.000000, -0.0353544
-1.000000, -30.500000, -0.0351975
-1.000000, -31.000000, -0.0349718
-1.000000, -31.500000, -0.0346784
-1.000000, -32.000000, -0.0343151
-1.000000, -32.500000, -0.0338833
-1.000000, -33.000000, -0.0333821
-1.000000, -33.500000, -0.0328103
-1.000000, -34.000000, -0.0321684
-1.000000, -34.500000, -0.0314557
-1.000000, -35.000000, -0.0306711
-1.000000, -35.500000, -0.0298166
-1.000000, -36.000000, -0.0288886
-1.000000, -36.500000, -0.0278886
-1.000000, -37.000000, -0.0268149
-1.000000, -37.500000, -0.0256686
-1.000000, -38.000000, -0.0244469
-1.000000, -38.500000, -0.0231507
-1.000000, -39.000000, -0.0217791
-1.000000, -39.500000, -0.020331
-1.000000, -40.000000, -0.0188055
-1.000000, -40.500000, -0.0172016
-1.000000, -41.000000, -0.0155196
-1.000000, -41.500000, -0.0137567
-1.000000, -42.000000, -0.0119145
-1.000000, -42.500000, -0.0099889
-1.500000, 42.500000, -0.129368
-1.500000, 42.000000, -0.1295934
-1.500000, 41.500000, -0.1297599
-1.500000, 41.000000, -0.1298677
-1.500000, 40.500000, -0.1299173
-1.500000, 40.000000, -0.1299103
-1.500000, 39.500000, -0.1298455
-1.500000, 39.000000, -0.1297248
-1.500000, 38.500000, -0.1295482
-1.500000, 38.000000, -0.1293167
-1.500000, 37.500000, -0.1290292
-1.500000, 37.000000, -0.1286868
-1.500000, 36.500000, -0.1282903
-1.500000, 36.000000, -0.1278387
-1.500000, 35.500000, -0.1273334
-1.500000, 35.000000, -0.1267743
-1.500000, 34.500000, -0.1261605
-1.500000, 34.000000, -0.1254944
-1.500000, 33.500000, -0.1247749
-1.500000, 33.000000, -0.1240028
-1.500000, 32.500000, -0.1231764
-1.500000, 32.000000, -0.1222981
-1.500000, 31.500000, -0.1213667
-1.500000, 31.000000, -0.1203838
-1.500000, 30.500000, -0.1193475
-1.500000, 30.000000, -0.1182589
-1.500000, 29.500000, -0.1171184
-1.500000, 29.000000, -0.1159261
-1.500000, 28.500000, -0.1146817
-1.500000, 28.000000, -0.1133856
-1.500000, 27.500000, -0.1120375
-1.500000, 27.000000, -0.1106389
-1.500000, 26.500000, -0.1091877
-1.500000, 26.000000, -0.1076865
-1.500000, 25.500000, -0.1061332
-1.500000, 25.000000, -0.1045303
-1.500000, 24.500000, -0.1028768
-1.500000, 24.000000, -0.1011732
-1.500000, 23.500000, -0.0994193
-1.500000, 23.000000, -0.0976157
-1.500000, 22.500000, -0.0957642
-1.500000, 22.000000, -0.0938631
-1.500000, 21.500000, -0.091915
-1.500000, 21.000000, -0.0899182
-1.500000, 20.500000, -0.0878762
-1.500000, 20.000000, -0.0857871
-1.500000, 19.500000, -0.0836531
-1.500000, 19.000000, -0.0814751
-1.500000, 18.500000, -0.0792543
-1.500000, 18.000000, -0.0769911
-1.500000, 17.500000, -0.0746875
-1.500000, 17.000000, -0.0723449
-1.500000, 16.500000, -0.0699637
-1.500000, 16.000000, -0.0675472
-1.500000, 15.500000, -0.0650965
-1.500000, 15.000000, -0.0626135
-1.500000, 14.500000, -0.0601011
-1.500000, 14.000000, -0.0575607
-1.500000, 13.500000, -0.0549962
-1.500000, 13.000000, -0.0524094
-1.500000, 12.500000, -0.0498038
-1.500000, 12.000000, -0.047184
-1.500000, 11.500000, -0.0445511
-1.500000, 11.000000, -0.0419114
-1.500000, 10.500000, -0.0392675
-1.500000, 10.000000, -0.0366242
-1.500000, 9.500000, -0.0339879
-1.500000, 9.000000, -0.0313611
-1.500000, 8.500000, -0.0287505
-1.500000, 8.000000, -0.0261614
-1.500000, 7.500000, -0.0236011
-1.500000, 7.000000, -0.0210733
-1.500000, 6.500000, -0.018587
-1.500000, 6.000000, -0.0161474
-1.500000, 5.500000, -0.0137622
-1.500000, 5.000000, -0.0114382
-1.500000, 4.500000, -0.0091834
-1.500000, 4.000000, -0.0070044
-1.500000, 3.500000, -0.0049096
-1.500000, 3.000000, -0.0029062
-1.500000, 2.500000, -0.0010013
-1.500000, 2.000000, 0.0007976
-1.500000, 1.500000, 0.0024826
-1.500000, 1.000000, 0.0040479
-1.500000, 0.500000, 0.0054859
-1.500000, 0.000000, 0.0067922
-1.500000, -0.500000, 0.0079599
-1.500000, -1.000000, 0.0089859
-1.500000, -1.500000, 0.0098646
-1.500000, -2.000000, 0.0105946
-1.500000, -2.500000, 0.0111717
-1.500000, -3.000000, 0.0115968
-1.500000, -3.500000, 0.0118694
-1.500000, -4.000000, 0.0119896
-1.500000, -4.500000, 0.0119596
-1.500000, -5.000000, 0.0117828
-1.500000, -5.500000, 0.0114638
-1.500000, -6.000000, 0.0110056
-1.500000, -6.500000, 0.010416
-1.500000, -7.000000, 0.0097007
-1.500000, -7.500000, 0.0088669
-1.500000, -8.000000, 0.0079226
-1.500000, -8.500000, 0.0068765
-1.500000, -9.000000, 0.0057369
-1.500000, -9.500000, 0.0045121
-1.500000, -10.000000, 0.0032128
-1.500000, -10.500000, 0.0018465
-1.500000, -11.000000, 0.0004226
-1.500000, -11.500000, -0.0010491
-1.500000, -12.000000, -0.002562
-1.500000, -12.500000, -0.0041068
-1.500000, -13.000000, -0.0056744
-1.500000, -13.500000, -0.0072592
-1.500000, -14.000000, -0.0088527
-1.500000, -14.500000, -0.0104481
-1.500000, -15.000000, -0.0120395
-1.500000, -15.500000, -0.0136205
-1.500000, -16.000000, -0.0151862
-1.500000, -16.500000, -0.0167307
-1.500000, -17.000000, -0.0182499
-1.500000, -17.500000, -0.0197395
-1.500000, -18.000000, -0.0211951
-1.500000, -18.500000, -0.0226123
-1.500000, -19.000000, -0.0239901
-1.500000, -19.500000, -0.0253231
-1.500000, -20.000000, -0.0266091
-1.500000, -20.500000, -0.0278472
-1.500000, -21.000000, -0.0290332
-1.500000, -21.500000, -0.030166
-1.500000, -22.000000, -0.0312441
-1.500000, -22.500000, -0.0322662
-1.500000, -23.000000, -0.0332297
-1.500000, -23.500000, -0.0341333
-1.500000, -24.000000, -0.0349772
-1.500000, -24.500000, -0.0357598
-1.500000, -25.000000, -0.0364803
-1.500000, -25.500000, -0.0371372
-1.500000, -26.000000, -0.0377305
-1.500000, -26.500000, -0.0382597
-1.500000, -27.000000, -0.0387239
-1.500000, -27.500000, -0.0391225
-1.500000, -28.000000, -0.0394556
-1.500000, -28.500000, -0.0397217
-1.500000, -29.000000, -0.0399211
-1.500000, -29.500000, -0.0400534
-1.500000, -30.000000, -0.0401179
-1.500000, -30.500000, -0.0401155
-1.500000, -31.000000, -0.0400448
-1.500000, -31.500000, -0.0399057
-1.500000, -32.000000, -0.0396971
-1.500000, -32.500000, -0.0394204
-1.500000, -33.000000, -0.0390748
-1.500000, -33.500000, -0.0386589
-1.500000, -34.000000, -0.0381724
-1.500000, -34.500000, -0.0376165
-1.500000, -35.000000, -0.0369903
-1.500000, -35.500000, -0.0362914
-1.500000, -36.000000, -0.0355227
-1.500000, -36.500000, -0.0346813
-1.500000, -37.000000, -0.0337668
-1.500000, -37.500000, -0.0327802
-1.500000, -38.000000, -0.0317197
-1.500000, -38.500000, -0.0305852
-1.500000, -39.000000, -0.0293758
-1.500000, -39.500000, -0.0280905
-1.500000, -40.000000, -0.0267303
-1.500000, -40.500000, -0.0252923
-1.500000, -41.000000, -0.0237757
-1.500000, -41.500000, -0.0221819
-1.500000, -42.000000, -0.0205074
-1.500000, -42.500000, -0.018753
-2.000000, 42.500000, -0.1386344
-2.000000, 42.000000, -0.1386912
-2.000000, 41.500000, -0.1386899
-2.000000, 41.000000, -0.1386328
-2.000000, 40.500000, -0.1385183
-2.000000, 40.000000, -0.1383491
-2.000000, 39.500000, -0.1381239
-2.000000, 39.000000, -0.1378435
-2.000000, 38.500000, -0.137508
-2.000000, 38.000000, -0.1371193
-2.000000, 37.500000, -0.1366754
-2.000000, 37.000000, -0.1361782
-2.000000, 36.500000, -0.1356277
-2.000000, 36.000000, -0.1350236
-2.000000, 35.500000, -0.1343657
-2.000000, 35.000000, -0.1336555
-2.000000, 34.500000, -0.1328924
-2.000000, 34.000000, -0.1320775
-2.000000, 33.500000, -0.1312088
-2.000000, 33.000000, -0.1302891
-2.000000, 32.500000, -0.1293168
-2.000000, 32.000000, -0.1282921
-2.000000, 31.500000, -0.1272148
-2.000000, 31.000000, -0.1260867
-2.000000, 30.500000, -0.1249067
-2.000000, 30.000000, -0.1236749
-2.000000, 29.500000, -0.1223908
-2.000000, 29.000000, -0.1210564
-2.000000, 28.500000, -0.1196694
-2.000000, 28.000000, -0.1182321
-2.000000, 27.500000, -0.1167434
-2.000000, 27.000000, -0.1152027
-2.000000, 26.500000, -0.113612
-2.000000, 26.000000, -0.1119706
-2.000000, 25.500000, -0.1102786
-2.000000, 25.000000, -0.1085365
-2.000000, 24.500000, -0.1067432
-2.000000, 24.000000, -0.1049012
-2.000000, 23.500000, -0.1030095
-2.000000, 23.000000, -0.1010685
-2.000000, 22.500000, -0.0990789
-2.000000, 22.000000, -0.0970412
-2.000000, 21.500000, -0.094955
-2.000000, 21.000000, -0.0928224
-2.000000, 20.500000, -0.0906441
-2.000000, 20.000000, -0.088419
-2.000000, 19.500000, -0.0861495
-2.000000, 19.000000, -0.0838353
-2.000000, 18.500000, -0.0814797
-2.000000, 18.000000, -0.0790812
-2.000000, 17.500000, -0.0766426
-2.000000, 17.000000, -0.0741653
-2.000000, 16.500000, -0.071651
-2.000000, 16.000000, -0.0691005
-2.000000, 15.500000, -0.0665164
-2.000000, 15.000000, -0.0639012
-2.000000, 14.500000, -0.061256
-2.000000, 14.000000, -0.0585843
-2.000000, 13.500000, -0.0558876
-2.000000, 13.000000, -0.0531712
-2.000000, 12.500000, -0.0504352
-2.000000, 12.000000, -0.0476854
-2.000000, 11.500000, -0.0449249
-2.000000, 11.000000, -0.0421568
-2.000000, 10.500000, -0.0393869
-2.000000, 10.000000, -0.036618
-2.000000, 9.500000, -0.0338574
-2.000000, 9.000000, -0.0311076
-2.000000, 8.500000, -0.0283754
-2.000000, 8.000000, -0.0256669
-2.000000, 7.500000, -0.0229886
-2.000000, 7.000000, -0.0203452
-2.000000, 6.500000, -0.0177455
-2.000000, 6.000000, -0.015195
-2.000000, 5.500000, -0.0127021
-2.000000, 5.000000, -0.0102737
-2.000000, 4.500000, -0.007917
-2.000000, 4.000000, -0.0056412
-2.000000, 3.500000, -0.0034531
-2.000000, 3.000000, -0.0013606
-2.000000, 2.500000, 0.0006281
-2.000000, 2.000000, 0.0025054
-2.000000, 1.500000, 0.0042626
-2.000000, 1.000000, 0.0058936
-2.000000, 0.500000, 0.0073921
-2.000000, 0.000000, 0.0087496
-2.000000, -0.500000, 0.0099621
-2.000000, -1.000000, 0.0110246
-2.000000, -1.500000, 0.0119316
-2.000000, -2.000000, 0.0126794
-2.000000, -2.500000, 0.0132681
-2.000000, -3.000000, 0.0136934
-2.000000, -3.500000, 0.0139569
-2.000000, -4.000000, 0.0140578
-2.000000, -4.500000, 0.014
