-20.500000, 30.000000, -1.0503579
-20.500000, 29.500000, -1.0329662
-20.500000, 29.000000, -1.0156826
-20.500000, 28.500000, -0.9985053
-20.500000, 28.000000, -0.9814327
-20.500000, 27.500000, -0.9644634
-20.500000, 27.000000, -0.9475979
-20.500000, 26.500000, -0.930833
-20.500000, 26.000000, -0.9141696
-20.500000, 25.500000, -0.8976066
-20.500000, 25.000000, -0.8811439
-20.500000, 24.500000, -0.8647827
-20.500000, 24.000000, -0.8485208
-20.500000, 23.500000, -0.8323607
-20.500000, 23.000000, -0.8163022
-20.500000, 22.500000, -0.8003466
-20.500000, 22.000000, -0.7844949
-20.500000, 21.500000, -0.7687484
-20.500000, 21.000000, -0.7531098
-20.500000, 20.500000, -0.7375806
-20.500000, 20.000000, -0.7221624
-20.500000, 19.500000, -0.7068585
-20.500000, 19.000000, -0.6916724
-20.500000, 18.500000, -0.6766062
-20.500000, 18.000000, -0.6616644
-20.500000, 17.500000, -0.6468499
-20.500000, 17.000000, -0.6321689
-20.500000, 16.500000, -0.6176233
-20.500000, 16.000000, -0.603221
-20.500000, 15.500000, -0.5889645
-20.500000, 15.000000, -0.5748617
-20.500000, 14.500000, -0.5609189
-20.500000, 14.000000, -0.5471416
-20.500000, 13.500000, -0.5335378
-20.500000, 13.000000, -0.5201138
-20.500000, 12.500000, -0.5068803
-20.500000, 12.000000, -0.4938434
-20.500000, 11.500000, -0.4810124
-20.500000, 11.000000, -0.4683989
-20.500000, 10.500000, -0.4560112
-20.500000, 10.000000, -0.4438606
-20.500000, 9.500000, -0.4319587
-20.500000, 9.000000, -0.4203167
-20.500000, 8.500000, -0.4089489
-20.500000, 8.000000, -0.397867
-20.500000, 7.500000, -0.387085
-20.500000, 7.000000, -0.3766172
-20.500000, 6.500000, -0.3664793
-20.500000, 6.000000, -0.3566871
-20.500000, 5.500000, -0.3472561
-20.500000, 5.000000, -0.3382037
-20.500000, 4.500000, -0.3295488
-20.500000, 4.000000, -0.3213075
-20.500000, 3.500000, -0.3134994
-20.500000, 3.000000, -0.3061432
-20.500000, 2.500000, -0.29926
-20.500000, 2.000000, -0.2928681
-20.500000, 1.500000, -0.2869892
-20.500000, 1.000000, -0.2816424
-20.500000, 0.500000, -0.2768477
-20.500000, 0.000000, -0.2726259
-20.500000, -0.500000, -0.2689957
-20.500000, -1.000000, -0.2659774
-20.500000, -1.500000, -0.2635852
-20.500000, -2.000000, -0.2618381
-20.500000, -2.500000, -0.260749
-20.500000, -3.000000, -0.2603282
-20.500000, -3.500000, -0.2605864
-20.500000, -4.000000, -0.2615275
-20.500000, -4.500000, -0.2631538
-20.500000, -5.000000, -0.2654627
-20.500000, -5.500000, -0.2684481
-20.500000, -6.000000, -0.2720981
-20.500000, -6.500000, -0.2764003
-20.500000, -7.000000, -0.2813372
-20.500000, -7.500000, -0.286887
-20.500000, -8.000000, -0.293028
-20.500000, -8.500000, -0.2997359
-20.500000, -9.000000, -0.3069867
-20.500000, -9.500000, -0.3147527
-20.500000, -10.000000, -0.3230086
-20.500000, -10.500000, -0.3317292
-20.500000, -11.000000, -0.3408899
-20.500000, -11.500000, -0.3504654
-20.500000, -12.000000, -0.3604314
-20.500000, -12.500000, -0.3707663
-20.500000, -13.000000, -0.3814488
-20.500000, -13.500000, -0.3924568
-20.500000, -14.000000, -0.4037726
-20.500000, -14.500000, -0.4153759
-20.500000, -15.000000, -0.4272517
-20.500000, -15.500000, -0.4393815
-20.500000, -16.000000, -0.451751
-20.500000, -16.500000, -0.4643453
-20.500000, -17.000000, -0.4771529
-20.500000, -17.500000, -0.4901589
-20.500000, -18.000000, -0.5033534
-20.500000, -18.500000, -0.5167252
-20.500000, -19.000000, -0.5302654
-20.500000, -19.500000, -0.5439625
-20.500000, -20.000000, -0.5578104
-20.500000, -20.500000, -0.5717996
-20.500000, -21.000000, -0.5859248
-20.500000, -21.500000, -0.6001774
-20.500000, -22.000000, -0.6145529
-20.500000, -22.500000, -0.6290456
-20.500000, -23.000000, -0.6436502
-20.500000, -23.500000, -0.6583627
-20.500000, -24.000000, -0.6731788
-20.500000, -24.500000, -0.6880957
-20.500000, -25.000000, -0.7031099
-20.500000, -25.500000, -0.7182196
-20.500000, -26.000000, -0.7334206
-20.500000, -26.500000, -0.748713
-20.500000, -27.000000, -0.7640939
-20.500000, -27.500000, -0.7795624
-20.500000, -28.000000, -0.7951187
-20.500000, -28.500000, -0.8107603
-20.500000, -29.000000, -0.8264896
-20.500000, -29.500000, -0.8423032
-20.500000, -30.000000, -0.8582049
-20.500000, -30.500000, -0.8741927
-20.500000, -31.000000, -0.8902687
-20.500000, -31.500000, -0.9064343
-20.500000, -32.000000, -0.92269
-20.500000, -32.500000, -0.9390378
-20.500000, -33.000000, -0.9554786
-20.500000, -33.500000, -0.9720162
-20.500000, -34.000000, -0.9886518
-20.500000, -34.500000, -1.005388
-20.500000, -35.000000, -1.0222289
-20.500000, -35.500000, -1.0391757
-20.500000, -36.000000, -1.0562323
-20.500000, -36.500000, -1.0734028
-20.500000, -37.000000, -1.0906901
-20.500000, -37.500000, -1.1080983
-20.500000, -38.000000, -1.1256325
-20.500000, -38.500000, -1.1432967
-20.500000, -39.000000, -1.1610953
-20.500000, -39.500000, -1.1790337
-20.500000, -40.000000, -1.1971176
-20.500000, -40.500000, -1.2153508
-20.500000, -41.000000, -1.2337407
-20.500000, -41.500000, -1.2522927
-20.500000, -42.000000, -1.2710129
-20.500000, -42.500000, -1.2899096
-21.000000, 42.500000, -1.5655364
-21.000000, 42.000000, -1.5437609
-21.000000, 41.500000, -1.5222149
-21.000000, 41.000000, -1.5008938
-21.000000, 40.500000, -1.4797902
-21.000000, 40.000000, -1.4588953
-21.000000, 39.500000, -1.4382046
-21.000000, 39.000000, -1.417709
-21.000000, 38.500000, -1.3974045
-21.000000, 38.000000, -1.3772824
-21.000000, 37.500000, -1.3573393
-21.000000, 37.000000, -1.3375677
-21.000000, 36.500000, -1.3179643
-21.000000, 36.000000, -1.298522
-21.000000, 35.500000, -1.2792376
-21.000000, 35.000000, -1.2601058
-21.000000, 34.500000, -1.2411234
-21.000000, 34.000000, -1.2222842
-21.000000, 33.500000, -1.2035857
-21.000000, 33.000000, -1.1850245
-21.000000, 32.500000, -1.1665969
-21.000000, 32.000000, -1.1482991
-21.000000, 31.500000, -1.130128
-21.000000, 31.000000, -1.1120824
-21.000000, 30.500000, -1.0941588
-21.000000, 30.000000, -1.0763545
-21.000000, 29.500000, -1.0586675
-21.000000, 29.000000, -1.0410954
-21.000000, 28.500000, -1.0236385
-21.000000, 28.000000, -1.0062929
-21.000000, 27.500000, -0.9890583
-21.000000, 27.000000, -0.9719339
-21.000000, 26.500000, -0.9549185
-21.000000, 26.000000, -0.9380108
-21.000000, 25.500000, -0.9212118
-21.000000, 25.000000, -0.90452
-21.000000, 24.500000, -0.8879358
-21.000000, 24.000000, -0.8714598
-21.000000, 23.500000, -0.8550924
-21.000000, 23.000000, -0.8388333
-21.000000, 22.500000, -0.8226858
-21.000000, 22.000000, -0.8066486
-21.000000, 21.500000, -0.7907252
-21.000000, 21.000000, -0.7749162
-21.000000, 20.500000, -0.7592238
-21.000000, 20.000000, -0.7436508
-21.000000, 19.500000, -0.7282002
-21.000000, 19.000000, -0.7128747
-21.000000, 18.500000, -0.6976762
-21.000000, 18.000000, -0.6826101
-21.000000, 17.500000, -0.6676792
-21.000000, 17.000000, -0.6528889
-21.000000, 16.500000, -0.6382437
-21.000000, 16.000000, -0.6237478
-21.000000, 15.500000, -0.6094064
-21.000000, 15.000000, -0.5952265
-21.000000, 14.500000, -0.5812143
-21.000000, 14.000000, -0.5673752
-21.000000, 13.500000, -0.5537182
-21.000000, 13.000000, -0.5402496
-21.000000, 12.500000, -0.5269771
-21.000000, 12.000000, -0.5139106
-21.000000, 11.500000, -0.5010585
-21.000000, 11.000000, -0.4884305
-21.000000, 10.500000, -0.4760366
-21.000000, 10.000000, -0.4638871
-21.000000, 9.500000, -0.4519937
-21.000000, 9.000000, -0.4403686
-21.000000, 8.500000, -0.4290239
-21.000000, 8.000000, -0.4179714
-21.000000, 7.500000, -0.4072271
-21.000000, 7.000000, -0.3968033
-21.000000, 6.500000, -0.3867155
-21.000000, 6.000000, -0.3769788
-21.000000, 5.500000, -0.3676093
-21.000000, 5.000000, -0.3586236
-21.000000, 4.500000, -0.3500396
-21.000000, 4.000000, -0.3418744
-21.000000, 3.500000, -0.3341454
-21.000000, 3.000000, -0.3268715
-21.000000, 2.500000, -0.3200717
-21.000000, 2.000000, -0.3137664
-21.000000, 1.500000, -0.3079722
-21.000000, 1.000000, -0.3027111
-21.000000, 0.500000, -0.2980003
-21.000000, 0.000000, -0.2938604
-21.000000, -0.500000, -0.2903073
-21.000000, -1.000000, -0.2873601
-21.000000, -1.500000, -0.2850342
-21.000000, -2.000000, -0.2833444
-21.000000, -2.500000, -0.2823037
-21.000000, -3.000000, -0.2819205
-21.000000, -3.500000, -0.2822054
-21.000000, -4.000000, -0.2831604
-21.000000, -4.500000, -0.2847876
-21.000000, -5.000000, -0.2870836
-21.000000, -5.500000, -0.2900443
-21.000000, -6.000000, -0.2936578
-21.000000, -6.500000, -0.2979125
-21.000000, -7.000000, -0.3027923
-21.000000, -7.500000, -0.3082771
-21.000000, -8.000000, -0.3143474
-21.000000, -8.500000, -0.3209809
-21.000000, -9.000000, -0.3281536
-21.000000, -9.500000, -0.3358407
-21.000000, -10.000000, -0.3440201
-21.000000, -10.500000, -0.3526656
-21.000000, -11.000000, -0.3617545
-21.000000, -11.500000, -0.3712625
-21.000000, -12.000000, -0.3811676
-21.000000, -12.500000, -0.3914471
-21.000000, -13.000000, -0.4020816
-21.000000, -13.500000, -0.4130492
-21.000000, -14.000000, -0.4243332
-21.000000, -14.500000, -0.4359133
-21.000000, -15.000000, -0.4477735
-21.000000, -15.500000, -0.4598984
-21.000000, -16.000000, -0.4722718
-21.000000, -16.500000, -0.4848807
-21.000000, -17.000000, -0.4977119
-21.000000, -17.500000, -0.5107522
-21.000000, -18.000000, -0.5239901
-21.000000, -18.500000, -0.5374162
-21.000000, -19.000000, -0.5510197
-21.000000, -19.500000, -0.5647912
-21.000000, -20.000000, -0.5787218
-21.000000, -20.500000, -0.5928058
-21.000000, -21.000000, -0.6070332
-21.000000, -21.500000, -0.6213992
-21.000000, -22.000000, -0.6358976
-21.000000, -22.500000, -0.6505228
-21.000000, -23.000000, -0.6652703
-21.000000, -23.500000, -0.6801344
-21.000000, -24.000000, -0.6951118
-21.000000, -24.500000, -0.7101988
-21.000000, -25.000000, -0.725392
-21.000000, -25.500000, -0.7406898
-21.000000, -26.000000, -0.7560888
-21.000000, -26.500000, -0.7715875
-21.000000, -27.000000, -0.7871839
-21.000000, -27.500000, -0.8028773
-21.000000, -28.000000, -0.8186659
-21.000000, -28.500000, -0.8345505
-21.000000, -29.000000, -0.8505294
-21.000000, -29.500000, -0.8666035
-21.000000, -30.000000, -0.8827725
-21.000000, -30.500000, -0.8990368
-21.000000, -31.000000, -0.9153984
-21.000000, -31.500000, -0.931856
-21.000000, -32.000000, -0.9484141
-21.000000, -32.500000, -0.9650719
-21.000000, -33.000000, -0.9818315
-21.000000, -33.500000, -0.9986967
-21.000000, -34.000000, -1.0156682
-21.000000, -34.500000, -1.0327494
-21.000000, -35.000000, -1.0499418
-21.000000, -35.500000, -1.0672506
-21.000000, -36.000000, -1.084677
-21.000000, -36.500000, -1.1022263
-21.000000, -37.000000, -1.1199017
-21.000000, -37.500000, -1.1377073
-21.000000, -38.000000, -1.1556464
-21.000000, -38.500000, -1.1737255
-21.000000, -39.000000, -1.191947
-21.000000, -39.500000, -1.2103186
-21.000000, -40.000000, -1.2288443
-21.000000, -40.500000, -1.2475292
-21.000000, -41.000000, -1.2663798
-21.000000, -41.500000, -1.2854029
-21.000000, -42.000000, -1.3046049
-21.000000, -42.500000, -1.3239924
-21.500000, 42.500000, -1.6019597
-21.500000, 42.000000, -1.5796807
-21.500000, 41.500000, -1.5576385
-21.500000, 41.000000, -1.5358323
-21.500000, 40.500000, -1.5142534
-21.500000, 40.000000, -1.4928926
-21.500000, 39.500000, -1.4717453
-21.500000, 39.000000, -1.4508029
-21.500000, 38.500000, -1.4300602
-21.500000, 38.000000, -1.4095094
-21.500000, 37.500000, -1.3891447
-21.500000, 37.000000, -1.3689624
-21.500000, 36.500000, -1.348955
-21.500000, 36.000000, -1.3291181
-21.500000, 35.500000, -1.3094464
-21.500000, 35.000000, -1.2899363
-21.500000, 34.500000, -1.2705826
-21.500000, 34.000000, -1.2513807
-21.500000, 33.500000, -1.232328
-21.500000, 33.000000, -1.2134199
-21.500000, 32.500000, -1.1946526
-21.500000, 32.000000, -1.176023
-21.500000, 31.500000, -1.157529
-21.500000, 31.000000, -1.1391672
-21.500000, 30.500000, -1.120934
-21.500000, 30.000000, -1.1028285
-21.500000, 29.500000, -1.0848474
-21.500000, 29.000000, -1.0669905
-21.500000, 28.500000, -1.0492538
-21.500000, 28.000000, -1.0316363
-21.500000, 27.500000, -1.0141376
-21.500000, 27.000000, -0.9967567
-21.500000, 26.500000, -0.9794914
-21.500000, 26.000000, -0.9623423
-21.500000, 25.500000, -0.9453081
-21.500000, 25.000000, -0.9283895
-21.500000, 24.500000, -0.9115856
-21.500000, 24.000000, -0.894898
-21.500000, 23.500000, -0.8783249
-21.500000, 23.000000, -0.861869
-21.500000, 22.500000, -0.8455315
-21.500000, 22.000000, -0.8293122
-21.500000, 21.500000, -0.8132142
-21.500000, 21.000000, -0.7972372
-21.500000, 20.500000, -0.7813864
-21.500000, 20.000000, -0.7656613
-21.500000, 19.500000, -0.7500661
-21.500000, 19.000000, -0.7346032
-21.500000, 18.500000, -0.7192766
-21.500000, 18.000000, -0.7040886
-21.500000, 17.500000, -0.6890449
-21.500000, 17.000000, -0.6741489
-21.500000, 16.500000, -0.6594061
-21.500000, 16.000000, -0.6448204
-21.500000, 15.500000, -0.6303973
-21.500000, 15.000000, -0.6161435
-21.500000, 14.500000, -0.6020652
-21.500000, 14.000000, -0.5881688
-21.500000, 13.500000, -0.5744613
-21.500000, 13.000000, -0.56095
-21.500000, 12.500000, -0.5476443
-21.500000, 12.000000, -0.5345513
-21.500000, 11.500000, -0.5216803
-21.500000, 11.000000, -0.509041
-21.500000, 10.500000, -0.4966432
-21.500000, 10.000000, -0.4844985
-21.500000, 9.500000, -0.4726164
-21.500000, 9.000000, -0.4610098
-21.500000, 8.500000, -0.4496913
-21.500000, 8.000000, -0.4386723
-21.500000, 7.500000, -0.4279668
-21.500000, 7.000000, -0.4175882
-21.500000, 6.500000, -0.407552
-21.500000, 6.000000, -0.3978732
-21.500000, 5.500000, -0.3885669
-21.500000, 5.000000, -0.3796497
-21.500000, 4.500000, -0.3711375
-21.500000, 4.000000, -0.3630483
-21.500000, 3.500000, -0.3553986
-21.500000, 3.000000, -0.3482073
-21.500000, 2.500000, -0.3414913
-21.500000, 2.000000, -0.335271
-21.500000, 1.500000, -0.329562
-21.500000, 1.000000, -0.3243853
-21.500000, 0.500000, -0.3197573
-21.500000, 0.000000, -0.3156963
-21.500000, -0.500000, -0.3122183
-21.500000, -1.000000, -0.3093413
-21.500000, -1.500000, -0.307078
-21.500000, -2.000000, -0.305443
-21.500000, -2.500000, -0.3044473
-21.500000, -3.000000, -0.3041003
-21.500000, -3.500000, -0.3044086
-21.500000, -4.000000, -0.3053763
-21.500000, -4.500000, -0.3070035
-21.500000, -5.000000, -0.3092877
-21.500000, -5.500000, -0.3122239
-21.500000, -6.000000, -0.3158022
-21.500000, -6.500000, -0.32001
-21.500000, -7.000000, -0.3248342
-21.500000, -7.500000, -0.3302568
-21.500000, -8.000000, -0.3362583
-21.500000, -8.500000, -0.3428183
-21.500000, -9.000000, -0.3499158
-21.500000, -9.500000, -0.3575274
-21.500000, -10.000000, -0.3656295
-21.500000, -10.500000, -0.3742012
-21.500000, -11.000000, -0.383218
-21.500000, -11.500000, -0.3926593
-21.500000, -12.000000, -0.4025023
-21.500000, -12.500000, -0.4127263
-21.500000, -13.000000, -0.423311
-21.500000, -13.500000, -0.4342373
-21.500000, -14.000000, -0.4454868
-21.500000, -14.500000, -0.4570412
-21.500000, -15.000000, -0.4688855
-21.500000, -15.500000, -0.4810023
-21.500000, -16.000000, -0.4933774
-21.500000, -16.500000, -0.5059981
-21.500000, -17.000000, -0.5188489
-21.500000, -17.500000, -0.5319199
-21.500000, -18.000000, -0.5451986
-21.500000, -18.500000, -0.5586746
-21.500000, -19.000000, -0.5723382
-21.500000, -19.500000, -0.5861791
-21.500000, -20.000000, -0.6001903
-21.500000, -20.500000, -0.6143634
-21.500000, -21.000000, -0.6286912
-21.500000, -21.500000, -0.6431672
-21.500000, -22.000000, -0.6577842
-21.500000, -22.500000, -0.6725385
-21.500000, -23.000000, -0.687424
-21.500000, -23.500000, -0.7024359
-21.500000, -24.000000, -0.71757
-21.500000, -24.500000, -0.7328246
-21.500000, -25.000000, -0.7481935
-21.500000, -25.500000, -0.7636771
-21.500000, -26.000000, -0.7792703
-21.500000, -26.500000, -0.7949724
-21.500000, -27.000000, -0.8107817
-21.500000, -27.500000, -0.8266956
-21.500000, -28.000000, -0.8427153
-21.500000, -28.500000, -0.8588388
-21.500000, -29.000000, -0.8750655
-21.500000, -29.500000, -0.8913964
-21.500000, -30.000000, -0.9078305
-21.500000, -30.500000, -0.924369
-21.500000, -31.000000, -0.9410132
-21.500000, -31.500000, -0.957763
-21.500000, -32.000000, -0.97462
-21.500000, -32.500000, -0.9915866
-21.500000, -33.000000, -1.0086639
-21.500000, -33.500000, -1.025855
-21.500000, -34.000000, -1.0431607
-21.500000, -34.500000, -1.0605846
-21.500000, -35.000000, -1.0781303
-21.500000, -35.500000, -1.0957994
-21.500000, -36.000000, -1.1135961
-21.500000, -36.500000, -1.131523
-21.500000, -37.000000, -1.1495864
-21.500000, -37.500000, -1.1677877
-21.500000, -38.000000, -1.1861324
-21.500000, -38.500000, -1.2046262
-21.500000, -39.000000, -1.2232719
-21.500000, -39.500000, -1.2420773
-21.500000, -40.000000, -1.2610456
-21.500000, -40.500000, -1.2801834
-21.500000, -41.000000, -1.2994973
-21.500000, -41.500000, -1.3189925
-21.500000, -42.000000, -1.3386767
-21.500000, -42.500000, -1.3585577
-22.000000, 42.500000, -1.6388972
-22.000000, 42.000000, -1.6161088
-22.000000, 41.500000, -1.593569
-22.000000, 41.000000, -1.5712755
-22.000000, 40.500000, -1.5492174
-22.000000, 40.000000, -1.5273894
-22.000000, 39.500000, -1.5057832
-22.000000, 39.000000, -1.4843923
-22.000000, 38.500000, -1.4632091
-22.000000, 38.000000, -1.4422274
-22.000000, 37.500000, -1.4214412
-22.000000, 37.000000, -1.4008457
-22.000000, 36.500000, -1.3804341
-22.000000, 36.000000, -1.3602008
-22.000000, 35.500000, -1.3401421
-22.000000, 35.000000, -1.3202524
-22.000000, 34.500000, -1.3005282
-22.000000, 34.000000, -1.2809638
-22.000000, 33.500000, -1.2615563
-22.000000, 33.000000, -1.242301
-22.000000, 32.500000, -1.2231949
-22.000000, 32.000000, -1.2042347
-22.000000, 31.500000, -1.1854163
-22.000000, 31.000000, -1.1667389
-22.000000, 30.500000, -1.1481979
-22.000000, 30.000000, -1.1297922
-22.000000, 29.500000, -1.1115185
-22.000000, 29.000000, -1.0933762
-22.000000, 28.500000, -1.0753615
-22.000000, 28.000000, -1.057475
-22.000000, 27.500000, -1.0397132
-22.000000, 27.000000, -1.0220771
-22.000000, 26.500000, -1.0045644
-22.000000, 26.000000, -0.9871755
-22.000000, 25.500000, -0.9699081
-22.000000, 25.000000, -0.9527647
-22.000000, 24.500000, -0.9357433
-22.000000, 24.000000, -0.9188445
-22.000000, 23.500000, -0.9020694
-22.000000, 23.000000, -0.8854185
-22.000000, 22.500000, -0.868893
-22.000000, 22.000000, -0.8524945
-22.000000, 21.500000, -0.8362232
-22.000000, 21.000000, -0.8200826
-22.000000, 20.500000, -0.8040739
-22.000000, 20.000000, -0.7881996
-22.000000, 19.500000, -0.7724636
-22.000000, 19.000000, -0.7568664
-22.000000, 18.500000, -0.7414138
-22.000000, 18.000000, -0.7261082
-22.000000, 17.500000, -0.7109544
-22.000000, 17.000000, -0.6959563
-22.000000, 16.500000, -0.6811175
-22.000000, 16.000000, -0.6664451
-22.000000, 15.500000, -0.6519443
-22.000000, 15.000000, -0.6376198
-22.000000, 14.500000, -0.6234777
-22.000000, 14.000000, -0.6095266
-22.000000, 13.500000, -0.5957712
-22.000000, 13.000000, -0.5822217
-22.000000, 12.500000, -0.5688838
-22.000000, 12.000000, -0.5557663
-22.000000, 11.500000, -0.5428796
-22.000000, 11.000000, -0.5302322
-22.000000, 10.500000, -0.517834
-22.000000, 10.000000, -0.5056955
-22.000000, 9.500000, -0.4938272
-22.000000, 9.000000, -0.4822421
-22.000000, 8.500000, -0.4709505
-22.000000, 8.000000, -0.459966
-22.000000, 7.500000, -0.4493016
-22.000000, 7.000000, -0.4389715
-22.000000, 6.500000, -0.4289883
-22.000000, 6.000000, -0.4193678
-22.000000, 5.500000, -0.4101254
-22.000000, 5.000000, -0.4012764
-22.000000, 4.500000, -0.3928368
-22.000000, 4.000000, -0.3848237
-22.000000, 3.500000, -0.3772535
-22.000000, 3.000000, -0.3701439
-22.000000, 2.500000, -0.363511
-22.000000, 2.000000, -0.3573742
-22.000000, 1.500000, -0.3517501
-22.000000, 1.000000, -0.3466546
-22.000000, 0.500000, -0.342107
-22.000000, 0.000000, -0.3381228
-22.000000, -0.500000, -0.334718
-22.000000, -1.000000, -0.3319076
-22.000000, -1.500000, -0.3297051
-22.000000, -2.000000, -0.3281222
-22.000000, -2.500000, -0.32717
-22.000000, -3.000000, -0.3268569
-22.000000, -3.500000, -0.3271875
-22.000000, -4.000000, -0.3281657
-22.000000, -4.500000, -0.3297918
-22.000000, -5.000000, -0.3320644
-22.000000, -5.500000, -0.3349764
-22.000000, -6.000000, -0.3385198
-22.000000, -6.500000, -0.3426843
-22.000000, -7.000000, -0.3474545
-22.000000, -7.500000, -0.3528166
-22.000000, -8.000000, -0.358752
-22.000000, -8.500000, -0.3652425
-22.000000, -9.000000, -0.3722661
-22.000000, -9.500000, -0.3798032
-22.000000, -10.000000, -0.3878315
-22.000000, -10.500000, -0.39633
-22.000000, -11.000000, -0.4052772
-22.000000, -11.500000, -0.4146516
-22.000000, -12.000000, -0.4244323
-22.000000, -12.500000, -0.4346008
-22.000000, -13.000000, -0.4451357
-22.000000, -13.500000, -0.4560192
-22.000000, -14.000000, -0.4672336
-22.000000, -14.500000, -0.4787617
-22.000000, -15.000000, -0.4905868
-22.000000, -15.500000, -0.5026943
-22.000000, -16.000000, -0.5150691
-22.000000, -16.500000, -0.5276975
-22.000000, -17.000000, -0.5405673
-22.000000, -17.500000, -0.5536654
-22.000000, -18.000000, -0.5669822
-22.000000, -18.500000, -0.5805048
-22.000000, -19.000000, -0.5942254
-22.000000, -19.500000, -0.6081336
-22.000000, -20.000000, -0.6222216
-22.000000, -20.500000, -0.6364809
-22.000000, -21.000000, -0.6509046
-22.000000, -21.500000, -0.6654862
-22.000000, -22.000000, -0.6802195
-22.000000, -22.500000, -0.695099
-22.000000, -23.000000, -0.7101195
-22.000000, -23.500000, -0.7252764
-22.000000, -24.000000, -0.7405645
-22.000000, -24.500000, -0.7559823
-22.000000, -25.000000, -0.7715247
-22.000000, -25.500000, -0.7871901
-22.000000, -26.000000, -0.8029745
-22.000000, -26.500000, -0.8188774
-22.000000, -27.000000, -0.8348961
-22.000000, -27.500000, -0.8510292
-22.000000, -28.000000, -0.867276
-22.000000, -28.500000, -0.8836355
-22.000000, -29.000000, -0.9001082
-22.000000, -29.500000, -0.9166935
-22.000000, -30.000000, -0.9333912
-22.000000, -30.500000, -0.9502009
-22.000000, -31.000000, -0.9671259
-22.000000, -31.500000, -0.9841653
-22.000000, -32.000000, -1.0013207
-22.000000, -32.500000, -1.0185949
-22.000000, -33.000000, -1.035988
-22.000000, -33.500000, -1.0535033
-22.000000, -34.000000, -1.0711428
-22.000000, -34.500000, -1.0889092
-22.000000, -35.000000, -1.1068054
-22.000000, -35.500000, -1.1248351
-22.000000, -36.000000, -1.1430008
-22.000000, -36.500000, -1.1613061
-22.000000, -37.000000, -1.1797557
-22.000000, -37.500000, -1.1983542
-22.000000, -38.000000, -1.2171054
-22.000000, -38.500000, -1.2360131
-22.000000, -39.000000, -1.2550843
-22.000000, -39.500000, -1.2743232
-22.000000, -40.000000, -1.2937354
-22.000000, -40.500000, -1.3133274
-22.000000, -41.000000, -1.3331055
-22.000000, -41.500000, -1.353075
-22.000000, -42.000000, -1.3732448
-22.000000, -42.500000, -1.3936202
-22.500000, 42.500000, -1.6763617
-22.500000, 42.000000, -1.6530595
-22.500000, 41.500000, -1.6300212
-22.500000, 41.000000, -1.6072361
-22.500000, 40.500000, -1.5846979
-22.500000, 40.000000, -1.5623998
-22.500000, 39.500000, -1.5403326
-22.500000, 39.000000, -1.5184901
-22.500000, 38.500000, -1.4968657
-22.500000, 38.000000, -1.4754518
-22.500000, 37.500000, -1.4542422
-22.500000, 37.000000, -1.4332318
-22.500000, 36.500000, -1.4124146
-22.500000, 36.000000, -1.3917847
-22.500000, 35.500000, -1.3713383
-22.500000, 35.000000, -1.3510685
-22.500000, 34.500000, -1.3309726
-22.500000, 34.000000, -1.3110456
-22.500000, 33.500000, -1.2912826
-22.500000, 33.000000, -1.2716807
-22.500000, 32.500000, -1.2522355
-22.500000, 32.000000, -1.2329438
-22.500000, 31.500000, -1.2138031
-22.500000, 31.000000, -1.1948107
-22.500000, 30.500000, -1.1759626
-22.500000, 30.000000, -1.1572567
-22.500000, 29.500000, -1.1386915
-22.500000, 29.000000, -1.1202642
-22.500000, 28.500000, -1.101974
-22.500000, 28.000000, -1.0838183
-22.500000, 27.500000, -1.0657954
-22.500000, 27.000000, -1.0479054
-22.500000, 26.500000, -1.0301468
-22.500000, 26.000000, -1.0125186
-22.500000, 25.500000, -0.9950208
-22.500000, 25.000000, -0.9776536
-22.500000, 24.500000, -0.9604169
-22.500000, 24.000000, -0.9433102
-22.500000, 23.500000, -0.9263344
-22.500000, 23.000000, -0.9094912
-22.500000, 22.500000, -0.8927805
-22.500000, 22.000000, -0.876204
-22.500000, 21.500000, -0.8597625
-22.500000, 21.000000, -0.8434598
-22.500000, 20.500000, -0.8272966
-22.500000, 20.000000, -0.8112757
-22.500000, 19.500000, -0.7953997
-22.500000, 19.000000, -0.7796722
-22.500000, 18.500000, -0.7640969
-22.500000, 18.000000, -0.748675
-22.500000, 17.500000, -0.7334133
-22.500000, 17.000000, -0.7183157
-22.500000, 16.500000, -0.7033858
-22.500000, 16.000000, -0.6886294
-22.500000, 15.500000, -0.6740519
-22.500000, 15.000000, -0.6596589
-22.500000, 14.500000, -0.6454574
-22.500000, 14.000000, -0.6314529
-22.500000, 13.500000, -0.6176541
-22.500000, 13.000000, -0.6040663
-22.500000, 12.500000, -0.5907
-22.500000, 12.000000, -0.577562
-22.500000, 11.500000, -0.5646605
-22.500000, 11.000000, -0.5520073
-22.500000, 10.500000, -0.5396101
-22.500000, 10.000000, -0.5274803
-22.500000, 9.500000, -0.5156275
-22.500000, 9.000000, -0.5040646
-22.500000, 8.500000, -0.4928028
-22.500000, 8.000000, -0.4818548
-22.500000, 7.500000, -0.4712325
-22.500000, 7.000000, -0.4609501
-22.500000, 6.500000, -0.4510212
-22.500000, 6.000000, -0.4414607
-22.500000, 5.500000, -0.4322827
-22.500000, 5.000000, -0.4235017
-22.500000, 4.500000, -0.4151347
-22.500000, 4.000000, -0.4071975
-22.500000, 3.500000, -0.3997058
-22.500000, 3.000000, -0.3926762
-22.500000, 2.500000, -0.3861258
-22.500000, 2.000000, -0.3800699
-22.500000, 1.500000, -0.3745272
-22.500000, 1.000000, -0.3695126
-22.500000, 0.500000, -0.3650433
-22.500000, 0.000000, -0.3611329
-22.500000, -0.500000, -0.3577983
-22.500000, -1.000000, -0.3550516
-22.500000, -1.500000, -0.3529062
-22.500000, -2.000000, -0.3513739
-22.500000, -2.500000, -0.3504618
-22.500000, -3.000000, -0.3501792
-22.500000, -3.500000, -0.3505308
-22.500000, -4.000000, -0.3515195
-22.500000, -4.500000, -0.3531447
-22.500000, -5.000000, -0.3554047
-22.500000, -5.500000, -0.3582937
-22.500000, -6.000000, -0.3618037
-22.500000, -6.500000, -0.3659262
-22.500000, -7.000000, -0.3706461
-22.500000, -7.500000, -0.3759505
-22.500000, -8.000000, -0.3818228
-22.500000, -8.500000, -0.3882448
-22.500000, -9.000000, -0.3951986
-22.500000, -9.500000, -0.4026635
-22.500000, -10.000000, -0.4106193
-22.500000, -10.500000, -0.4190471
-22.500000, -11.000000, -0.4279263
-22.500000, -11.500000, -0.4372355
-22.500000, -12.000000, -0.446956
-22.500000, -12.500000, -0.457069
-22.500000, -13.000000, -0.4675543
-22.500000, -13.500000, -0.4783951
-22.500000, -14.000000, -0.4895739
-22.500000, -14.500000, -0.5010744
-22.500000, -15.000000, -0.5128799
-22.500000, -15.500000, -0.5249759
-22.500000, -16.000000, -0.5373484
-22.500000, -16.500000, -0.5499838
-22.500000, -17.000000, -0.5628697
-22.500000, -17.500000, -0.5759933
-22.500000, -18.000000, -0.589345
-22.500000, -18.500000, -0.6029129
-22.500000, -19.000000, -0.6166872
-22.500000, -19.500000, -0.6306597
-22.500000, -20.000000, -0.6448207
-22.500000, -20.500000, -0.6591646
-22.500000, -21.000000, -0.6736818
-22.500000, -21.500000, -0.6883665
-22.500000, -22.000000, -0.703212
-22.500000, -22.500000, -0.7182135
-22.500000, -23.000000, -0.7333662
-22.500000, -23.500000, -0.7486644
-22.500000, -24.000000, -0.7641042
-22.500000, -24.500000, -0.7796819
-22.500000, -25.000000, -0.7953946
-22.500000, -25.500000, -0.8112388
-22.500000, -26.000000, -0.8272116
-22.500000, -26.500000, -0.8433118
-22.500000, -27.000000, -0.8595374
-22.500000, -27.500000, -0.8758874
-22.500000, -28.000000, -0.8923593
-22.500000, -28.500000, -0.908953
-22.500000, -29.000000, -0.9256692
-22.500000, -29.500000, -0.9425055
-22.500000, -30.000000, -0.9594647
-22.500000, -30.500000, -0.9765456
-22.500000, -31.000000, -0.9937487
-22.500000, -31.500000, -1.0110761
-22.500000, -32.000000, -1.0285288
-22.500000, -32.500000, -1.0461075
-22.500000, -33.000000, -1.0638157
-22.500000, -33.500000, -1.0816546
-22.500000, -34.000000, -1.0996266
-22.500000, -34.500000, -1.1177346
-22.500000, -35.000000, -1.1359815
-22.500000, -35.500000, -1.1543703
-22.500000, -36.000000, -1.1729047
-22.500000, -36.500000, -1.1915886
-22.500000, -37.000000, -1.2104258
-22.500000, -37.500000, -1.2294202
-22.500000, -38.000000, -1.2485778
-22.500000, -38.500000, -1.2679017
-22.500000, -39.000000, -1.2873981
-22.500000, -39.500000, -1.3070726
-22.500000, -40.000000, -1.3269298
-22.500000, -40.500000, -1.3469769
-22.500000, -41.000000, -1.3672201
-22.500000, -41.500000, -1.3876662
-22.500000, -42.000000, -1.4083225
-22.500000, -42.500000, -1.4291957
-23.000000, 42.500000, -1.7174212
-23.000000, 42.000000, -1.69055
-23.000000, 41.500000, -1.6670071
-23.000000, 41.000000, -1.6437287
-23.000000, 40.500000, -1.620708
-23.000000, 40.000000, -1.5979371
-23.000000, 39.500000, -1.5754072
-23.000000, 39.000000, -1.553111
-23.000000, 38.500000, -1.5310425
-23.000000, 38.000000, -1.5091949
-23.000000, 37.500000, -1.4875607
-23.000000, 37.000000, -1.4661345
-23.000000, 36.500000, -1.4449111
-23.000000, 36.000000, -1.4238833
-23.000000, 35.500000, -1.4030471
-23.000000, 35.000000, -1.3823965
-23.000000, 34.500000, -1.3619285
-23.000000, 34.000000, -1.3416378
-23.000000, 33.500000, -1.3215195
-23.000000, 33.000000, -1.3015702
-23.000000, 32.500000, -1.2817866
-23.000000, 32.000000, -1.2621643
-23.000000, 31.500000, -1.2427015
-23.000000, 31.000000, -1.2233933
-23.000000, 30.500000, -1.2042388
-23.000000, 30.000000, -1.1852344
-23.000000, 29.500000, -1.1663778
-23.000000, 29.000000, -1.1476669
-23.000000, 28.500000, -1.1291015
-23.000000, 28.000000, -1.1106773
-23.000000, 27.500000, -1.0923944
-23.000000, 27.000000, -1.0742525
-23.000000, 26.500000, -1.0562491
-23.000000, 26.000000, -1.0383843
-23.000000, 25.500000, -1.0206566
-23.000000, 25.000000, -1.0030685
-23.000000, 24.500000, -0.9856165
-23.000000, 24.000000, -0.9683041
-23.000000, 23.500000, -0.9511302
-23.000000, 23.000000, -0.9340953
-23.000000, 22.500000, -0.9172012
-23.000000, 22.000000, -0.9004495
-23.000000, 21.500000, -0.883841
-23.000000, 21.000000, -0.8673783
-23.000000, 20.500000, -0.8510622
-23.000000, 20.000000, -0.8348972
-23.000000, 19.500000, -0.818885
-23.000000, 19.000000, -0.8030291
-23.000000, 18.500000, -0.7873321
-23.000000, 18.000000, -0.7717971
-23.000000, 17.500000, -0.7564309
-23.000000, 17.000000, -0.7412354
-23.000000, 16.500000, -0.726216
-23.000000, 16.000000, -0.7113775
-23.000000, 15.500000, -0.6967262
-23.000000, 15.000000, -0.6822678
-23.000000, 14.500000, -0.6680081
-23.000000, 14.000000, -0.6539536
-23.000000, 13.500000, -0.640112
-23.000000, 13.000000, -0.6264905
-23.000000, 12.500000, -0.6130965
-23.000000, 12.000000, -0.5999389
-23.000000, 11.500000, -0.5870269
-23.000000, 11.000000, -0.574369
-23.000000, 10.500000, -0.5619741
-23.000000, 10.000000, -0.5498545
-23.000000, 9.500000, -0.5380197
-23.000000, 9.000000, -0.5264806
-23.000000, 8.500000, -0.5152496
-23.000000, 8.000000, -0.504338
-23.000000, 7.500000, -0.493759
-23.000000, 7.000000, -0.4835255
-23.000000, 6.500000, -0.4736503
-23.000000, 6.000000, -0.4641491
-23.000000, 5.500000, -0.4550342
-23.000000, 5.000000, -0.4463219
-23.000000, 4.500000, -0.4380272
-23.000000, 4.000000, -0.4301641
-23.000000, 3.500000, -0.4227499
-23.000000, 3.000000, -0.4157986
-23.000000, 2.500000, -0.409328
-23.000000, 2.000000, -0.4033535
-23.000000, 1.500000, -0.3978897
-23.000000, 1.000000, -0.3929527
-23.000000, 0.500000, -0.3885575
-23.000000, 0.000000, -0.3847199
-23.000000, -0.500000, -0.3814515
-23.000000, -1.000000, -0.3787657
-23.000000, -1.500000, -0.3766757
-23.000000, -2.000000, -0.3751895
-23.000000, -2.500000, -0.374316
-23.000000, -3.000000, -0.3740626
-23.000000, -3.500000, -0.3744339
-23.000000, -4.000000, -0.3754311
-23.000000, -4.500000, -0.3770552
-23.000000, -5.000000, -0.3793029
-23.000000, -5.500000, -0.3821702
-23.000000, -6.000000, -0.3856491
-23.000000, -6.500000, -0.3897303
-23.000000, -7.000000, -0.3944025
-23.000000, -7.500000, -0.399652
-23.000000, -8.000000, -0.405464
-23.000000, -8.500000, -0.4118216
-23.000000, -9.000000, -0.4187076
-23.000000, -9.500000, -0.4261037
-23.000000, -10.000000, -0.4339915
-23.000000, -10.500000, -0.4423501
-23.000000, -11.000000, -0.451163
-23.000000, -11.500000, -0.4604089
-23.000000, -12.000000, -0.4700709
-23.000000, -12.500000, -0.4801285
-23.000000, -13.000000, -0.4905655
-23.000000, -13.500000, -0.501364
-23.000000, -14.000000, -0.5125076
-23.000000, -14.500000, -0.5239801
-23.000000, -15.000000, -0.5357658
-23.000000, -15.500000, -0.5478492
-23.000000, -16.000000, -0.5602185
-23.000000, -16.500000, -0.57286
-23.000000, -17.000000, -0.5857594
-23.000000, -17.500000, -0.5989069
-23.000000, -18.000000, -0.6122911
-23.000000, -18.500000, -0.6259021
-23.000000, -19.000000, -0.6397281
-23.000000, -19.500000, -0.653763
-23.000000, -20.000000, -0.6679952
-23.000000, -20.500000, -0.6824202
-23.000000, -21.000000, -0.6970283
-23.000000, -21.500000, -0.711813
-23.000000, -22.000000, -0.7267695
-23.000000, -22.500000, -0.7418902
-23.000000, -23.000000, -0.7571723
-23.000000, -23.500000, -0.7726092
-23.000000, -24.000000, -0.7881971
-23.000000, -24.500000, -0.8039325
-23.000000, -25.000000, -0.8198125
-23.000000, -25.500000, -0.8358326
-23.000000, -26.000000, -0.8519923
-23.000000, -26.500000, -0.8682881
-23.000000, -27.000000, -0.8847175
-23.000000, -27.500000, -0.9012814
-23.000000, -28.000000, -0.9179763
-23.000000, -28.500000, -0.9348025
-23.000000, -29.000000, -0.9517589
-23.000000, -29.500000, -0.9688458
-23.000000, -30.000000, -0.9860634
-23.000000, -30.500000, -1.0034128
-23.000000, -31.000000, -1.0208933
-23.000000, -31.500000, -1.0385075
-23.000000, -32.000000, -1.0562553
-23.000000, -32.500000, -1.0741386
-23.000000, -33.000000, -1.0921602
-23.000000, -33.500000, -1.1103215
-23.000000, -34.000000, -1.1286258
-23.000000, -34.500000, -1.1470745
-23.000000, -35.000000, -1.1656705
-23.000000, -35.500000, -1.1844191
-23.000000, -36.000000, -1.2033223
-23.000000, -36.500000, -1.2223841
-23.000000, -37.000000, -1.2416085
-23.000000, -37.500000, -1.2610007
-23.000000, -38.000000, -1.2805639
-23.000000, -38.500000, -1.3003045
-23.000000, -39.000000, -1.320228
-23.000000, -39.500000, -1.3403382
-23.000000, -40.000000, -1.3606421
-23.000000, -40.500000, -1.381146
-23.000000, -41.000000, -1.4018567
-23.000000, -41.500000, -1.4227811
-23.000000, -42.000000, -1.443926
-23.000000, -42.500000, -1.4652982
-23.500000, 42.500000, -1.756061
-23.500000, 42.000000, -1.7285939
-23.500000, 41.500000, -1.7045451
-23.500000, 41.000000, -1.6807694
-23.500000, 40.500000, -1.6572628
-23.500000, 40.000000, -1.6340158
-23.500000, 39.500000, -1.6110204
-23.500000, 39.000000, -1.5882691
-23.500000, 38.500000, -1.5657554
-23.500000, 38.000000, -1.5434714
-23.500000, 37.500000, -1.5214101
-23.500000, 37.000000, -1.499567
-23.500000, 36.500000, -1.4779347
-23.500000, 36.000000, -1.4565086
-23.500000, 35.500000, -1.4352815
-23.500000, 35.000000, -1.4142502
-23.500000, 34.500000, -1.3934094
-23.500000, 34.000000, -1.3727537
-23.500000, 33.500000, -1.35228
-23.500000, 33.000000, -1.3319836
-23.500000, 32.500000, -1.3118611
-23.500000, 32.000000, -1.2919078
-23.500000, 31.500000, -1.2721219
-23.500000, 31.000000, -1.2525002
-23.500000, 30.500000, -1.2330386
-23.500000, 30.000000, -1.2137356
-23.500000, 29.500000, -1.1945883
-23.500000, 29.000000, -1.1755959
-23.500000, 28.500000, -1.1567549
-23.500000, 28.000000, -1.1380637
-23.500000, 27.500000, -1.1195224
-23.500000, 27.000000, -1.1011286
-23.500000, 26.500000, -1.0828817
-23.500000, 26.000000, -1.0647815
-23.500000, 25.500000, -1.0468267
-23.500000, 25.000000, -1.0290173
-23.500000, 24.500000, -1.011354
-23.500000, 24.000000, -0.9938361
-23.500000, 23.500000, -0.9764654
-23.500000, 23.000000, -0.9592412
-23.500000, 22.500000, -0.9421664
-23.500000, 22.000000, -0.9252404
-23.500000, 21.500000, -0.9084669
-23.500000, 21.000000, -0.8918454
-23.500000, 20.500000, -0.8753797
-23.500000, 20.000000, -0.8590722
-23.500000, 19.500000, -0.8429255
-23.500000, 19.000000, -0.826943
-23.500000, 18.500000, -0.8111273
-23.500000, 18.000000, -0.7954824
-23.500000, 17.500000, -0.780012
-23.500000, 17.000000, -0.764722
-23.500000, 16.500000, -0.7496147
-23.500000, 16.000000, -0.7346979
-23.500000, 15.500000, -0.7199747
-23.500000, 15.000000, -0.7054519
-23.500000, 14.500000, -0.6911362
-23.500000, 14.000000, -0.677034
-23.500000, 13.500000, -0.6631521
-23.500000, 13.000000, -0.6494975
-23.500000, 12.500000, -0.6360786
-23.500000, 12.000000, -0.6229033
-23.500000, 11.500000, -0.6099807
-23.500000, 11.000000, -0.5973193
-23.500000, 10.500000, -0.58493
-23.500000, 10.000000, -0.5728209
-23.500000, 9.500000, -0.5610038
-23.500000, 9.000000, -0.5494903
-23.500000, 8.500000, -0.5382897
-23.500000, 8.000000, -0.5274156
-23.500000, 7.500000, -0.5168798
-23.500000, 7.000000, -0.5066956
-23.500000, 6.500000, -0.4968753
-23.500000, 6.000000, -0.487432
-23.500000, 5.500000, -0.4783807
-23.500000, 5.000000, -0.4697358
-23.500000, 4.500000, -0.4615112
-23.500000, 4.000000, -0.453722
-23.500000, 3.500000, -0.4463826
-23.500000, 3.000000, -0.4395086
-23.500000, 2.500000, -0.4331152
-23.500000, 2.000000, -0.4272175
-23.500000, 1.500000, -0.4218313
-23.500000, 1.000000, -0.4169685
-23.500000, 0.500000, -0.4126464
-23.500000, 0.000000, -0.4088763
-23.500000, -0.500000, -0.4056724
-23.500000, -1.000000, -0.4030445
-23.500000, -1.500000, -0.4010063
-23.500000, -2.000000, -0.3995645
-23.500000, -2.500000, -0.3987272
-23.500000, -3.000000, -0.3985006
-23.500000, -3.500000, -0.3988896
-23.500000, -4.000000, -0.399896
-23.500000, -4.500000, -0.4015182
-23.500000, -5.000000, -0.4037548
-23.500000, -5.500000, -0.4066007
-23.500000, -6.000000, -0.41005
-23.500000, -6.500000, -0.4140943
-23.500000, -7.000000, -0.4187206
-23.500000, -7.500000, -0.4239188
-23.500000, -8.000000, -0.4296736
-23.500000, -8.500000, -0.4359697
-23.500000, -9.000000, -0.4427913
-23.500000, -9.500000, -0.4501218
-23.500000, -10.000000, -0.4579429
-23.500000, -10.500000, -0.466237
-23.500000, -11.000000, -0.4749853
-23.500000, -11.500000, -0.4841707
-23.500000, -12.000000, -0.4937753
-23.500000, -12.500000, -0.5037806
-23.500000, -13.000000, -0.5141705
-23.500000, -13.500000, -0.5249271
-23.500000, -14.000000, -0.536036
-23.500000, -14.500000, -0.5474802
-23.500000, -15.000000, -0.5592449
-23.500000, -15.500000, -0.5713167
-23.500000, -16.000000, -0.5836829
-23.500000, -16.500000, -0.5963277
-23.500000, -17.000000, -0.609241
-23.500000, -17.500000, -0.622411
-23.500000, -18.000000, -0.6358274
-23.500000, -18.500000, -0.6494783
-23.500000, -19.000000, -0.663355
-23.500000, -19.500000, -0.6774495
-23.500000, -20.000000, -0.6917512
-23.500000, -20.500000, -0.7062547
-23.500000, -21.000000, -0.7209514
-23.500000, -21.500000, -0.7358339
-23.500000, -22.000000, -0.7508984
-23.500000, -22.500000, -0.7661364
-23.500000, -23.000000, -0.7815452
-23.500000, -23.500000, -0.7971184
-23.500000, -24.000000, -0.8128521
-23.500000, -24.500000, -0.828744
-23.500000, -25.000000, -0.8447883
-23.500000, -25.500000, -0.8609827
-23.500000, -26.000000, -0.8773255
-23.500000, -26.500000, -0.8938147
-23.500000, -27.000000, -0.9104466
-23.500000, -27.500000, -0.9272214
-23.500000, -28.000000, -0.9441377
-23.500000, -28.500000, -0.9611939
-23.500000, -29.000000, -0.9783889
-23.500000, -29.500000, -0.9957253
-23.500000, -30.000000, -1.0132006
-23.500000, -30.500000, -1.0308156
-23.500000, -31.000000, -1.0485722
-23.500000, -31.500000, -1.0664709
-23.500000, -32.000000, -1.0845138
-23.500000, -32.500000, -1.1027001
-23.500000, -33.000000, -1.1210346
-23.500000, -33.500000, -1.139518
-23.500000, -34.000000, -1.1581527
-23.500000, -34.500000, -1.1769414
-23.500000, -35.000000, -1.1958882
-23.500000, -35.500000, -1.2149955
-23.500000, -36.000000, -1.2342666
-23.500000, -36.500000, -1.2537067
-23.500000, -37.000000, -1.273319
-23.500000, -37.500000, -1.2931081
-23.500000, -38.000000, -1.3130794
-23.500000, -38.500000, -1.3332374
-23.500000, -39.000000, -1.3535881
-23.500000, -39.500000, -1.3741364
-23.500000, -40.000000, -1.3948878
-23.500000, -40.500000, -1.4158508
-23.500000, -41.000000, -1.4370304
-23.500000, -41.500000, -1.4584351
-23.500000, -42.000000, -1.4800709
-23.500000, -42.500000, -1.501946
-24.000000, 42.500000, -1.7960177
-24.000000, 42.000000, -1.7672067
-24.000000, 41.500000, -1.7426475
-24.000000, 41.000000, -1.7183723
-24.000000, 40.500000, -1.6943769
-24.000000, 40.000000, -1.6706514
-24.000000, 39.500000, -1.6471876
-24.000000, 39.000000, -1.6239794
-24.000000, 38.500000, -1.6010172
-24.000000, 38.000000, -1.5782948
-24.000000, 37.500000, -1.5558058
-24.000000, 37.000000, -1.5335426
-24.000000, 36.500000, -1.5115013
-24.000000, 36.000000, -1.4896742
-24.000000, 35.500000, -1.4680559
-24.000000, 35.000000, -1.4466428
-24.000000, 34.500000, -1.4254274
-24.000000, 34.000000, -1.4044073
-24.000000, 33.500000, -1.3835778
-24.000000, 33.000000, -1.3629334
-24.000000, 32.500000, -1.3424713
-24.000000, 32.000000, -1.3221877
-24.000000, 31.500000, -1.3020784
-24.000000, 31.000000, -1.2821423
-24.000000, 30.500000, -1.262375
-24.000000, 30.000000, -1.2427737
-24.000000, 29.500000, -1.2233367
-24.000000, 29.000000, -1.2040617
-24.000000, 28.500000, -1.1849462
-24.000000, 28.000000, -1.1659895
-24.000000, 27.500000, -1.1471895
-24.000000, 27.000000, -1.1285457
-24.000000, 26.500000, -1.1100563
-24.000000, 26.000000, -1.0917221
-24.000000, 25.500000, -1.0735405
-24.000000, 25.000000, -1.0555126
-24.000000, 24.500000, -1.0376378
-24.000000, 24.000000, -1.0199175
-24.000000, 23.500000, -1.0023511
-24.000000, 23.000000, -0.9849391
-24.000000, 22.500000, -0.9676842
-24.000000, 22.000000, -0.9505875
-24.000000, 21.500000, -0.933649
-24.000000, 21.000000, -0.9168718
-24.000000, 20.500000, -0.9002578
-24.000000, 20.000000, -0.8838102
-24.000000, 19.500000, -0.8675307
-24.000000, 19.000000, -0.8514233
-24.000000, 18.500000, -0.8354908
-24.000000, 18.000000, -0.8197371
-24.000000, 17.500000, -0.8041658
-24.000000, 17.000000, -0.7887816
-24.000000, 16.500000, -0.7735899
-24.000000, 16.000000, -0.7585945
-24.000000, 15.500000, -0.7438024
-24.000000, 15.000000, -0.7292181
-24.000000, 14.500000, -0.7148476
-24.000000, 14.000000, -0.700699
-24.000000, 13.500000, -0.6867781
-24.000000, 13.000000, -0.673092
-24.000000, 12.500000, -0.6596499
-24.000000, 12.000000, -0.6464577
-24.000000, 11.500000, -0.6335265
-24.000000, 11.000000, -0.6208638
-24.000000, 10.500000, -0.6084783
-24.000000, 10.000000, -0.5963823
-24.000000, 9.500000, -0.5845842
-24.000000, 9.000000, -0.5730949
-24.000000, 8.500000, -0.5619266
-24.000000, 8.000000, -0.5510898
-24.000000, 7.500000, -0.5405974
-24.000000, 7.000000, -0.5304615
-24.000000, 6.500000, -0.5206946
-24.000000, 6.000000, -0.5113095
-24.000000, 5.500000, -0.5023203
-24.000000, 5.000000, -0.4937416
-24.000000, 4.500000, -0.485586
-24.000000, 4.000000, -0.4778677
-24.000000, 3.500000, -0.470602
-24.000000, 3.000000, -0.4638026
-24.000000, 2.500000, -0.4574846
-24.000000, 2.000000, -0.4516622
-24.000000, 1.500000, -0.4463492
-24.000000, 1.000000, -0.4415583
-24.000000, 0.500000, -0.4373049
-24.000000, 0.000000, -0.4336005
-24.000000, -0.500000, -0.4304569
-24.000000, -1.000000, -0.4278853
-24.000000, -1.500000, -0.4258952
-24.000000, -2.000000, -0.4244952
-24.000000, -2.500000, -0.4236916
-24.000000, -3.000000, -0.4234916
-24.000000, -3.500000, -0.423897
-24.000000, -4.000000, -0.4249107
-24.000000, -4.500000, -0.426532
-24.000000, -5.000000, -0.4287576
-24.000000, -5.500000, -0.4315843
-24.000000, -6.000000, -0.4350055
-24.000000, -6.500000, -0.4390136
-24.000000, -7.000000, -0.4435975
-24.000000, -7.500000, -0.4487464
-24.000000, -8.000000, -0.4544468
-24.000000, -8.500000, -0.4606856
-24.000000, -9.000000, -0.4674469
-24.000000, -9.500000, -0.4747152
-24.000000, -10.000000, -0.4824733
-24.000000, -10.500000, -0.4907043
-24.000000, -11.000000, -0.4993928
-24.000000, -11.500000, -0.5085195
-24.000000, -12.000000, -0.5180687
-24.000000, -12.500000, -0.5280239
-24.000000, -13.000000, -0.538367
-24.000000, -13.500000, -0.5490841
-24.000000, -14.000000, -0.560159
-24.000000, -14.500000, -0.5715766
-24.000000, -15.000000, -0.5833221
-24.000000, -15.500000, -0.5953814
-24.000000, -16.000000, -0.6077425
-24.000000, -16.500000, -0.6203919
-24.000000, -17.000000, -0.6333186
-24.000000, -17.500000, -0.6465098
-24.000000, -18.000000, -0.6599561
-24.000000, -18.500000, -0.6736468
-24.000000, -19.000000, -0.6875733
-24.000000, -19.500000, -0.7017247
-24.000000, -20.000000, -0.7160952
-24.000000, -20.500000, -0.7306748
-24.000000, -21.000000, -0.7454578
-24.000000, -21.500000, -0.760438
-24.000000, -22.000000, -0.7756075
-24.000000, -22.500000, -0.7909612
-24.000000, -23.000000, -0.8064941
-24.000000, -23.500000, -0.8222021
-24.000000, -24.000000, -0.8380795
-24.000000, -24.500000, -0.8541238
-24.000000, -25.000000, -0.8703316
-24.000000, -25.500000, -0.8866985
-24.000000, -26.000000, -0.9032231
-24.000000, -26.500000, -0.9199023
-24.000000, -27.000000, -0.9367357
-24.000000, -27.500000, -0.9537195
-24.000000, -28.000000, -0.9708545
-24.000000, -28.500000, -0.9881392
-24.000000, -29.000000, -1.0055727
-24.000000, -29.500000, -1.0231547
-24.000000, -30.000000, -1.0408857
-24.000000, -30.500000, -1.058767
-24.000000, -31.000000, -1.0767983
-24.000000, -31.500000, -1.0949814
-24.000000, -32.000000, -1.1133167
-24.000000, -32.500000, -1.1318053
-24.000000, -33.000000, -1.1504514
-24.000000, -33.500000, -1.1692558
-24.000000, -34.000000, -1.1882213
-24.000000, -34.500000, -1.2073504
-24.000000, -35.000000, -1.2266468
-24.000000, -35.500000, -1.2461129
-24.000000, -36.000000, -1.2657532
-24.000000, -36.500000, -1.2855713
-24.000000, -37.000000, -1.3055716
-24.000000, -37.500000, -1.3257598
-24.000000, -38.000000, -1.3461388
-24.000000, -38.500000, -1.3667152
-24.000000, -39.000000, -1.3874944
-24.000000, -39.500000, -1.4084816
-24.000000, -40.000000, -1.4296834
-24.000000, -40.500000, -1.4511059
-24.000000, -41.000000, -1.4727573
-24.000000, -41.500000, -1.4946435
-24.000000, -42.000000, -1.5167727
-24.000000, -42.500000, -1.5391537
-24.500000, 42.500000, -1.8360489
-24.500000, 42.000000, -1.8064057
-24.500000, 41.500000, -1.7813321
-24.500000, 41.000000, -1.756554
-24.500000, 40.500000, -1.7320657
-24.500000, 40.000000, -1.7078591
-24.500000, 39.500000, -1.6839245
-24.500000, 39.000000, -1.6602555
-24.500000, 38.500000, -1.6368423
-24.500000, 38.000000, -1.6136802
-24.500000, 37.500000, -1.5907608
-24.500000, 37.000000, -1.5680768
-24.500000, 36.500000, -1.5456243
-24.500000, 36.000000, -1.5233954
-24.500000, 35.500000, -1.5013842
-24.500000, 35.000000, -1.4795871
-24.500000, 34.500000, -1.4579972
-24.500000, 34.000000, -1.4366119
-24.500000, 33.500000, -1.4154244
-24.500000, 33.000000, -1.3944318
-24.500000, 32.500000, -1.3736302
-24.500000, 32.000000, -1.3530146
-24.500000, 31.500000, -1.3325837
-24.500000, 31.000000, -1.312332
-24.500000, 30.500000, -1.2922591
-24.500000, 30.000000, -1.2723601
-24.500000, 29.500000, -1.2526329
-24.500000, 29.000000, -1.2330762
-24.500000, 28.500000, -1.2136873
-24.500000, 28.000000, -1.1944654
-24.500000, 27.500000, -1.1754082
-24.500000, 27.000000, -1.1565151
-24.500000, 26.500000, -1.1377842
-24.500000, 26.000000, -1.1192161
-24.500000, 25.500000, -1.1008091
-24.500000, 25.000000, -1.0825632
-24.500000, 24.500000, -1.0644787
-24.500000, 24.000000, -1.0465568
-24.500000, 23.500000, -1.028796
-24.500000, 23.000000, -1.0111985
-24.500000, 22.500000, -0.9937659
-24.500000, 22.000000, -0.9764983
-24.500000, 21.500000, -0.9593976
-24.500000, 21.000000, -0.9424658
-24.500000, 20.500000, -0.9257057
-24.500000, 20.000000, -0.9091183
-24.500000, 19.500000, -0.8927084
-24.500000, 19.000000, -0.8764779
-24.500000, 18.500000, -0.8604305
-24.500000, 18.000000, -0.844569
-24.500000, 17.500000, -0.8288989
-24.500000, 17.000000, -0.8134229
-24.500000, 16.500000, -0.7981474
-24.500000, 16.000000, -0.7830759
-24.500000, 15.500000, -0.7682156
-24.500000, 15.000000, -0.7535709
-24.500000, 14.500000, -0.7391485
-24.500000, 14.000000, -0.7249538
-24.500000, 13.500000, -0.7109954
-24.500000, 13.000000, -0.6972802
-24.500000, 12.500000, -0.6838147
-24.500000, 12.000000, -0.6706074
