-14.000000, -5.000000, 1.10366
-14.000000, -4.500000, 1.08176
-14.000000, -4.000000, 1.062099
-14.000000, -3.500000, 1.044661
-14.000000, -3.000000, 1.029437
-14.000000, -2.500000, 1.016422
-14.000000, -2.000000, 1.005614
-14.000000, -1.500000, 0.997012
-14.000000, -1.000000, 0.990615
-14.000000, -0.500000, 0.986425
-14.000000, 0.000000, 0.984444
-14.000000, 0.500000, 0.984678
-14.000000, 1.000000, 0.987134
-14.000000, 1.500000, 0.991825
-14.000000, 2.000000, 0.998768
-14.000000, 2.500000, 1.007988
-14.000000, 3.000000, 1.019512
-14.000000, 3.500000, 1.033375
-14.000000, 4.000000, 1.049615
-14.000000, 4.500000, 1.068276
-14.000000, 5.000000, 1.089405
-14.000000, 5.500000, 1.113052
-14.000000, 6.000000, 1.139268
-14.000000, 6.500000, 1.168106
-14.000000, 7.000000, 1.19962
-14.000000, 7.500000, 1.233864
-14.000000, 8.000000, 1.270888
-14.000000, 8.500000, 1.310744
-14.000000, 9.000000, 1.353481
-14.000000, 9.500000, 1.399146
-14.000000, 10.000000, 1.447783
-14.000000, 10.500000, 1.499434
-14.000000, 11.000000, 1.554138
-14.000000, 11.500000, 1.611932
-14.000000, 12.000000, 1.672849
-14.000000, 12.500000, 1.736921
-14.000000, 13.000000, 1.804177
-14.000000, 13.500000, 1.874641
-14.000000, 14.000000, 1.948339
-14.000000, 14.500000, 2.025293
-14.000000, 15.000000, 2.10552
-14.000000, 15.500000, 2.189041
-14.000000, 16.000000, 2.275871
-14.000000, 16.500000, 2.366024
-14.000000, 17.000000, 2.459516
-14.000000, 17.500000, 2.556357
-14.000000, 18.000000, 2.656559
-14.000000, 18.500000, 2.760133
-14.000000, 19.000000, 2.86709
-14.000000, 19.500000, 2.977437
-14.000000, 20.000000, 3.091185
-14.000000, 20.500000, 3.208342
-14.000000, 21.000000, 3.328917
-14.000000, 21.500000, 3.452917
-14.000000, 22.000000, 3.580351
-14.000000, 22.500000, 3.711228
-14.000000, 23.000000, 3.845557
-14.000000, 23.500000, 3.983346
-14.000000, 24.000000, 4.124604
-14.000000, 24.500000, 4.269342
-14.000000, 25.000000, 4.417569
-14.000000, 25.500000, 4.569295
-14.000000, 26.000000, 4.724533
-14.000000, 26.500000, 4.883292
-14.000000, 27.000000, 5.045587
-14.000000, 27.500000, 5.211429
-14.000000, 28.000000, 5.380832
-14.000000, 28.500000, 5.55381
-14.000000, 29.000000, 5.730379
-14.000000, 29.500000, 5.910554
-14.000000, 30.000000, 6.094352
-14.000000, 30.500000, 6.281791
-14.000000, 31.000000, 6.472888
-14.000000, 31.500000, 6.667663
-14.000000, 32.000000, 6.866136
-14.000000, 32.500000, 7.068329
-14.000000, 33.000000, 7.274262
-14.000000, 33.500000, 7.483959
-14.000000, 34.000000, 7.697444
-14.000000, 34.500000, 7.914742
-14.000000, 35.000000, 8.135879
-14.000000, 35.500000, 8.360881
-14.000000, 36.000000, 8.589777
-14.000000, 36.500000, 8.822596
-14.000000, 37.000000, 9.059369
-14.000000, 37.500000, 9.300126
-14.000000, 38.000000, 9.544901
-14.000000, 38.500000, 9.793728
-14.000000, 39.000000, 10.046641
-14.000000, 39.500000, 10.303677
-14.000000, 40.000000, 10.564875
-14.000000, 40.500000, 10.830272
-14.000000, 41.000000, 11.09991
-14.000000, 41.500000, 11.37383
-14.000000, 42.000000, 11.652077
-14.000000, 42.500000, 11.934694
-13.500000, -42.500000, 11.872047
-13.500000, -42.000000, 11.589182
-13.500000, -41.500000, 11.310674
-13.500000, -41.000000, 11.03648
-13.500000, -40.500000, 10.766554
-13.500000, -40.000000, 10.500857
-13.500000, -39.500000, 10.239346
-13.500000, -39.000000, 9.981984
-13.500000, -38.500000, 9.728733
-13.500000, -38.000000, 9.479556
-13.500000, -37.500000, 9.23442
-13.500000, -37.000000, 8.993289
-13.500000, -36.500000, 8.756132
-13.500000, -36.000000, 8.522918
-13.500000, -35.500000, 8.293617
-13.500000, -35.000000, 8.068201
-13.500000, -34.500000, 7.846641
-13.500000, -34.000000, 7.628913
-13.500000, -33.500000, 7.41499
-13.500000, -33.000000, 7.204848
-13.500000, -32.500000, 6.998466
-13.500000, -32.000000, 6.79582
-13.500000, -31.500000, 6.59689
-13.500000, -31.000000, 6.401657
-13.500000, -30.500000, 6.210102
-13.500000, -30.000000, 6.022208
-13.500000, -29.500000, 5.837957
-13.500000, -29.000000, 5.657334
-13.500000, -28.500000, 5.480326
-13.500000, -28.000000, 5.306917
-13.500000, -27.500000, 5.137096
-13.500000, -27.000000, 4.970851
-13.500000, -26.500000, 4.808171
-13.500000, -26.000000, 4.649045
-13.500000, -25.500000, 4.493466
-13.500000, -25.000000, 4.341425
-13.500000, -24.500000, 4.192914
-13.500000, -24.000000, 4.047926
-13.500000, -23.500000, 3.906456
-13.500000, -23.000000, 3.768497
-13.500000, -22.500000, 3.634045
-13.500000, -22.000000, 3.503095
-13.500000, -21.500000, 3.375642
-13.500000, -21.000000, 3.251684
-13.500000, -20.500000, 3.131215
-13.500000, -20.000000, 3.014233
-13.500000, -19.500000, 2.900732
-13.500000, -19.000000, 2.790709
-13.500000, -18.500000, 2.684157
-13.500000, -18.000000, 2.581072
-13.500000, -17.500000, 2.481446
-13.500000, -17.000000, 2.385272
-13.500000, -16.500000, 2.292538
-13.500000, -16.000000, 2.203234
-13.500000, -15.500000, 2.117344
-13.500000, -15.000000, 2.034854
-13.500000, -14.500000, 1.955742
-13.500000, -14.000000, 1.879985
-13.500000, -13.500000, 1.807557
-13.500000, -13.000000, 1.738425
-13.500000, -12.500000, 1.672555
-13.500000, -12.000000, 1.609905
-13.500000, -11.500000, 1.550429
-13.500000, -11.000000, 1.494076
-13.500000, -10.500000, 1.440789
-13.500000, -10.000000, 1.390506
-13.500000, -9.500000, 1.34316
-13.500000, -9.000000, 1.298681
-13.500000, -8.500000, 1.256994
-13.500000, -8.000000, 1.218022
-13.500000, -7.500000, 1.181689
-13.500000, -7.000000, 1.147917
-13.500000, -6.500000, 1.116635
-13.500000, -6.000000, 1.087777
-13.500000, -5.500000, 1.061282
-13.500000, -5.000000, 1.037101
-13.500000, -4.500000, 1.015195
-13.500000, -4.000000, 0.995535
-13.500000, -3.500000, 0.978101
-13.500000, -3.000000, 0.962883
-13.500000, -2.500000, 0.949875
-13.500000, -2.000000, 0.939072
-13.500000, -1.500000, 0.930475
-13.500000, -1.000000, 0.924084
-13.500000, -0.500000, 0.919898
-13.500000, 0.000000, 0.917923
-13.500000, 0.500000, 0.918162
-13.500000, 1.000000, 0.920626
-13.500000, 1.500000, 0.925327
-13.500000, 2.000000, 0.932285
-13.500000, 2.500000, 0.941523
-13.500000, 3.000000, 0.953071
-13.500000, 3.500000, 0.966963
-13.500000, 4.000000, 0.983239
-13.500000, 4.500000, 1.001943
-13.500000, 5.000000, 1.023123
-13.500000, 5.500000, 1.046828
-13.500000, 6.000000, 1.073111
-13.500000, 6.500000, 1.102024
-13.500000, 7.000000, 1.133622
-13.500000, 7.500000, 1.167958
-13.500000, 8.000000, 1.205083
-13.500000, 8.500000, 1.245049
-13.500000, 9.000000, 1.287904
-13.500000, 9.500000, 1.333694
-13.500000, 10.000000, 1.382464
-13.500000, 10.500000, 1.434255
-13.500000, 11.000000, 1.489105
-13.500000, 11.500000, 1.547051
-13.500000, 12.000000, 1.608125
-13.500000, 12.500000, 1.672358
-13.500000, 13.000000, 1.739777
-13.500000, 13.500000, 1.810409
-13.500000, 14.000000, 1.884275
-13.500000, 14.500000, 1.961398
-13.500000, 15.000000, 2.041796
-13.500000, 15.500000, 2.125486
-13.500000, 16.000000, 2.212483
-13.500000, 16.500000, 2.302803
-13.500000, 17.000000, 2.396457
-13.500000, 17.500000, 2.493458
-13.500000, 18.000000, 2.593816
-13.500000, 18.500000, 2.697541
-13.500000, 19.000000, 2.804643
-13.500000, 19.500000, 2.915131
-13.500000, 20.000000, 3.029012
-13.500000, 20.500000, 3.146296
-13.500000, 21.000000, 3.26699
-13.500000, 21.500000, 3.391102
-13.500000, 22.000000, 3.518641
-13.500000, 22.500000, 3.649614
-13.500000, 23.000000, 3.784029
-13.500000, 23.500000, 3.921897
-13.500000, 24.000000, 4.063225
-13.500000, 24.500000, 4.208023
-13.500000, 25.000000, 4.356301
-13.500000, 25.500000, 4.508069
-13.500000, 26.000000, 4.663338
-13.500000, 26.500000, 4.82212
-13.500000, 27.000000, 4.984426
-13.500000, 27.500000, 5.150271
-13.500000, 28.000000, 5.319666
-13.500000, 28.500000, 5.492628
-13.500000, 29.000000, 5.669169
-13.500000, 29.500000, 5.849307
-13.500000, 30.000000, 6.033058
-13.500000, 30.500000, 6.22044
-13.500000, 31.000000, 6.41147
-13.500000, 31.500000, 6.606169
-13.500000, 32.000000, 6.804555
-13.500000, 32.500000, 7.006651
-13.500000, 33.000000, 7.212478
-13.500000, 33.500000, 7.42206
-13.500000, 34.000000, 7.635419
-13.500000, 34.500000, 7.852582
-13.500000, 35.000000, 8.073574
-13.500000, 35.500000, 8.298422
-13.500000, 36.000000, 8.527155
-13.500000, 36.500000, 8.759801
-13.500000, 37.000000, 8.996391
-13.500000, 37.500000, 9.236957
-13.500000, 38.000000, 9.481531
-13.500000, 38.500000, 9.730147
-13.500000, 39.000000, 9.982841
-13.500000, 39.500000, 10.239649
-13.500000, 40.000000, 10.500608
-13.500000, 40.500000, 10.765758
-13.500000, 41.000000, 11.035139
-13.500000, 41.500000, 11.308794
-13.500000, 42.000000, 11.586765
-13.500000, 42.500000, 11.869098
-13.000000, -42.500000, 11.809982
-13.000000, -42.000000, 11.527417
-13.000000, -41.500000, 11.249199
-13.000000, -41.000000, 10.975286
-13.000000, -40.500000, 10.705633
-13.000000, -40.000000, 10.440198
-13.000000, -39.500000, 10.178941
-13.000000, -39.000000, 9.921823
-13.000000, -38.500000, 9.668807
-13.000000, -38.000000, 9.419855
-13.000000, -37.500000, 9.174934
-13.000000, -37.000000, 8.93401
-13.000000, -36.500000, 8.697049
-13.000000, -36.000000, 8.464022
-13.000000, -35.500000, 8.234897
-13.000000, -35.000000, 8.009647
-13.000000, -34.500000, 7.788244
-13.000000, -34.000000, 7.570661
-13.000000, -33.500000, 7.356873
-13.000000, -33.000000, 7.146856
-13.000000, -32.500000, 6.940586
-13.000000, -32.000000, 6.738043
-13.000000, -31.500000, 6.539205
-13.000000, -31.000000, 6.344052
-13.000000, -30.500000, 6.152566
-13.000000, -30.000000, 5.964728
-13.000000, -29.500000, 5.780523
-13.000000, -29.000000, 5.599934
-13.000000, -28.500000, 5.422946
-13.000000, -28.000000, 5.249547
-13.000000, -27.500000, 5.079723
-13.000000, -27.000000, 4.913462
-13.000000, -26.500000, 4.750754
-13.000000, -26.000000, 4.591588
-13.000000, -25.500000, 4.435956
-13.000000, -25.000000, 4.283849
-13.000000, -24.500000, 4.13526
-13.000000, -24.000000, 3.990182
-13.000000, -23.500000, 3.848608
-13.000000, -23.000000, 3.710534
-13.000000, -22.500000, 3.575954
-13.000000, -22.000000, 3.444865
-13.000000, -21.500000, 3.317262
-13.000000, -21.000000, 3.193141
-13.000000, -20.500000, 3.072499
-13.000000, -20.000000, 2.955332
-13.000000, -19.500000, 2.841638
-13.000000, -19.000000, 2.731411
-13.000000, -18.500000, 2.624648
-13.000000, -18.000000, 2.521343
-13.000000, -17.500000, 2.42149
-13.000000, -17.000000, 2.325082
-13.000000, -16.500000, 2.232111
-13.000000, -16.000000, 2.142565
-13.000000, -15.500000, 2.056431
-13.000000, -15.000000, 1.973694
-13.000000, -14.500000, 1.894336
-13.000000, -14.000000, 1.818335
-13.000000, -13.500000, 1.745664
-13.000000, -13.000000, 1.676296
-13.000000, -12.500000, 1.610194
-13.000000, -12.000000, 1.54732
-13.000000, -11.500000, 1.487629
-13.000000, -11.000000, 1.431071
-13.000000, -10.500000, 1.377592
-13.000000, -10.000000, 1.32713
-13.000000, -9.500000, 1.27962
-13.000000, -9.000000, 1.234992
-13.000000, -8.500000, 1.193172
-13.000000, -8.000000, 1.154084
-13.000000, -7.500000, 1.117651
-13.000000, -7.000000, 1.083797
-13.000000, -6.500000, 1.05245
-13.000000, -6.000000, 1.023541
-13.000000, -5.500000, 0.99701
-13.000000, -5.000000, 0.972806
-13.000000, -4.500000, 0.950886
-13.000000, -4.000000, 0.931221
-13.000000, -3.500000, 0.913788
-13.000000, -3.000000, 0.898573
-13.000000, -2.500000, 0.88557
-13.000000, -2.000000, 0.874773
-13.000000, -1.500000, 0.866182
-13.000000, -1.000000, 0.859795
-13.000000, -0.500000, 0.855615
-13.000000, 0.000000, 0.853646
-13.000000, 0.500000, 0.853894
-13.000000, 1.000000, 0.856369
-13.000000, 1.500000, 0.861086
-13.000000, 2.000000, 0.868064
-13.000000, 2.500000, 0.877328
-13.000000, 3.000000, 0.888908
-13.000000, 3.500000, 0.902839
-13.000000, 4.000000, 0.919163
-13.000000, 4.500000, 0.937922
-13.000000, 5.000000, 0.959166
-13.000000, 5.500000, 0.982945
-13.000000, 6.000000, 1.00931
-13.000000, 6.500000, 1.038316
-13.000000, 7.000000, 1.070015
-13.000000, 7.500000, 1.104461
-13.000000, 8.000000, 1.141706
-13.000000, 8.500000, 1.181799
-13.000000, 9.000000, 1.22479
-13.000000, 9.500000, 1.270724
-13.000000, 10.000000, 1.319645
-13.000000, 10.500000, 1.371593
-13.000000, 11.000000, 1.426607
-13.000000, 11.500000, 1.48472
-13.000000, 12.000000, 1.545967
-13.000000, 12.500000, 1.610375
-13.000000, 13.000000, 1.677973
-13.000000, 13.500000, 1.748785
-13.000000, 14.000000, 1.822833
-13.000000, 14.500000, 1.900137
-13.000000, 15.000000, 1.980715
-13.000000, 15.500000, 2.064584
-13.000000, 16.000000, 2.151758
-13.000000, 16.500000, 2.242252
-13.000000, 17.000000, 2.336076
-13.000000, 17.500000, 2.433243
-13.000000, 18.000000, 2.533762
-13.000000, 18.500000, 2.637642
-13.000000, 19.000000, 2.744894
-13.000000, 19.500000, 2.855524
-13.000000, 20.000000, 2.969541
-13.000000, 20.500000, 3.086953
-13.000000, 21.000000, 3.207767
-13.000000, 21.500000, 3.331992
-13.000000, 22.000000, 3.459634
-13.000000, 22.500000, 3.590703
-13.000000, 23.000000, 3.725205
-13.000000, 23.500000, 3.863149
-13.000000, 24.000000, 4.004545
-13.000000, 24.500000, 4.149401
-13.000000, 25.000000, 4.297727
-13.000000, 25.500000, 4.449533
-13.000000, 26.000000, 4.604831
-13.000000, 26.500000, 4.763632
-13.000000, 27.000000, 4.925948
-13.000000, 27.500000, 5.091791
-13.000000, 28.000000, 5.261175
-13.000000, 28.500000, 5.434115
-13.000000, 29.000000, 5.610626
-13.000000, 29.500000, 5.790723
-13.000000, 30.000000, 5.974423
-13.000000, 30.500000, 6.161744
-13.000000, 31.000000, 6.352704
-13.000000, 31.500000, 6.547322
-13.000000, 32.000000, 6.745618
-13.000000, 32.500000, 6.947614
-13.000000, 33.000000, 7.153332
-13.000000, 33.500000, 7.362795
-13.000000, 34.000000, 7.576026
-13.000000, 34.500000, 7.793051
-13.000000, 35.000000, 8.013895
-13.000000, 35.500000, 8.238587
-13.000000, 36.000000, 8.467154
-13.000000, 36.500000, 8.699625
-13.000000, 37.000000, 8.936032
-13.000000, 37.500000, 9.176404
-13.000000, 38.000000, 9.420776
-13.000000, 38.500000, 9.669181
-13.000000, 39.000000, 9.921655
-13.000000, 39.500000, 10.178234
-13.000000, 40.000000, 10.438955
-13.000000, 40.500000, 10.703858
-13.000000, 41.000000, 10.972984
-13.000000, 41.500000, 11.246374
-13.000000, 42.000000, 11.524072
-13.000000, 42.500000, 11.806123
-12.500000, -42.500000, 11.750469
-12.500000, -42.000000, 11.468201
-12.500000, -41.500000, 11.190273
-12.500000, -41.000000, 10.91664
-12.500000, -40.500000, 10.647259
-12.500000, -40.000000, 10.382087
-12.500000, -39.500000, 10.121085
-12.500000, -39.000000, 9.864212
-12.500000, -38.500000, 9.611432
-12.500000, -38.000000, 9.362708
-12.500000, -37.500000, 9.118005
-12.500000, -37.000000, 8.877289
-12.500000, -36.500000, 8.640528
-12.500000, -36.000000, 8.40769
-12.500000, -35.500000, 8.178746
-12.500000, -35.000000, 7.953666
-12.500000, -34.500000, 7.732424
-12.500000, -34.000000, 7.514991
-12.500000, -33.500000, 7.301343
-12.500000, -33.000000, 7.091456
-12.500000, -32.500000, 6.885306
-12.500000, -32.000000, 6.682871
-12.500000, -31.500000, 6.484131
-12.500000, -31.000000, 6.289064
-12.500000, -30.500000, 6.097653
-12.500000, -30.000000, 5.909879
-12.500000, -29.500000, 5.725726
-12.500000, -29.000000, 5.545177
-12.500000, -28.500000, 5.368218
-12.500000, -28.000000, 5.194835
-12.500000, -27.500000, 5.025015
-12.500000, -27.000000, 4.858746
-12.500000, -26.500000, 4.696017
-12.500000, -26.000000, 4.536818
-12.500000, -25.500000, 4.381139
-12.500000, -25.000000, 4.228973
-12.500000, -24.500000, 4.080312
-12.500000, -24.000000, 3.935149
-12.500000, -23.500000, 3.793477
-12.500000, -23.000000, 3.655293
-12.500000, -22.500000, 3.52059
-12.500000, -22.000000, 3.389365
-12.500000, -21.500000, 3.261613
-12.500000, -21.000000, 3.137332
-12.500000, -20.500000, 3.016518
-12.500000, -20.000000, 2.899168
-12.500000, -19.500000, 2.785279
-12.500000, -19.000000, 2.674847
-12.500000, -18.500000, 2.567869
-12.500000, -18.000000, 2.464341
-12.500000, -17.500000, 2.364256
-12.500000, -17.000000, 2.267608
-12.500000, -16.500000, 2.17439
-12.500000, -16.000000, 2.084593
-12.500000, -15.500000, 1.998203
-12.500000, -15.000000, 1.915207
-12.500000, -14.500000, 1.835589
-12.500000, -14.000000, 1.759327
-12.500000, -13.500000, 1.686397
-12.500000, -13.000000, 1.616771
-12.500000, -12.500000, 1.550418
-12.500000, -12.000000, 1.487298
-12.500000, -11.500000, 1.427369
-12.500000, -11.000000, 1.370584
-12.500000, -10.500000, 1.316888
-12.500000, -10.000000, 1.266222
-12.500000, -9.500000, 1.218523
-12.500000, -9.000000, 1.17372
-12.500000, -8.500000, 1.131743
-12.500000, -8.000000, 1.092516
-12.500000, -7.500000, 1.055962
-12.500000, -7.000000, 1.022006
-12.500000, -6.500000, 0.990574
-12.500000, -6.000000, 0.961599
-12.500000, -5.500000, 0.935018
-12.500000, -5.000000, 0.910778
-12.500000, -4.500000, 0.888836
-12.500000, -4.000000, 0.869158
-12.500000, -3.500000, 0.851721
-12.500000, -3.000000, 0.836506
-12.500000, -2.500000, 0.823506
-12.500000, -2.000000, 0.812713
-12.500000, -1.500000, 0.804127
-12.500000, -1.000000, 0.797746
-12.500000, -0.500000, 0.793574
-12.500000, 0.000000, 0.791614
-12.500000, 0.500000, 0.791873
-12.500000, 1.000000, 0.794364
-12.500000, 1.500000, 0.799101
-12.500000, 2.000000, 0.806106
-12.500000, 2.500000, 0.815403
-12.500000, 3.000000, 0.827025
-12.500000, 3.500000, 0.841007
-12.500000, 4.000000, 0.857389
-12.500000, 4.500000, 0.876218
-12.500000, 5.000000, 0.89754
-12.500000, 5.500000, 0.921408
-12.500000, 6.000000, 0.947872
-12.500000, 6.500000, 0.976987
-12.500000, 7.000000, 1.008805
-12.500000, 7.500000, 1.043379
-12.500000, 8.000000, 1.080761
-12.500000, 8.500000, 1.121001
-12.500000, 9.000000, 1.164146
-12.500000, 9.500000, 1.210242
-12.500000, 10.000000, 1.259331
-12.500000, 10.500000, 1.311454
-12.500000, 11.000000, 1.366647
-12.500000, 11.500000, 1.424944
-12.500000, 12.000000, 1.486378
-12.500000, 12.500000, 1.550976
-12.500000, 13.000000, 1.618766
-12.500000, 13.500000, 1.68977
-12.500000, 14.000000, 1.76401
-12.500000, 14.500000, 1.841506
-12.500000, 15.000000, 1.922274
-12.500000, 15.500000, 2.006331
-12.500000, 16.000000, 2.09369
-12.500000, 16.500000, 2.184364
-12.500000, 17.000000, 2.278365
-12.500000, 17.500000, 2.375702
-12.500000, 18.000000, 2.476386
-12.500000, 18.500000, 2.580426
-12.500000, 19.000000, 2.687829
-12.500000, 19.500000, 2.798604
-12.500000, 20.000000, 2.912758
-12.500000, 20.500000, 3.030299
-12.500000, 21.000000, 3.151234
-12.500000, 21.500000, 3.275571
-12.500000, 22.000000, 3.403316
-12.500000, 22.500000, 3.534478
-12.500000, 23.000000, 3.669064
-12.500000, 23.500000, 3.807083
-12.500000, 24.000000, 3.948543
-12.500000, 24.500000, 4.093454
-12.500000, 25.000000, 4.241825
-12.500000, 25.500000, 4.393667
-12.500000, 26.000000, 4.54899
-12.500000, 26.500000, 4.707806
-12.500000, 27.000000, 4.870126
-12.500000, 27.500000, 5.035964
-12.500000, 28.000000, 5.205334
-12.500000, 28.500000, 5.378248
-12.500000, 29.000000, 5.554724
-12.500000, 29.500000, 5.734776
-12.500000, 30.000000, 5.918421
-12.500000, 30.500000, 6.105676
-12.500000, 31.000000, 6.296562
-12.500000, 31.500000, 6.491095
-12.500000, 32.000000, 6.689298
-12.500000, 32.500000, 6.891191
-12.500000, 33.000000, 7.096796
-12.500000, 33.500000, 7.306136
-12.500000, 34.000000, 7.519235
-12.500000, 34.500000, 7.73612
-12.500000, 35.000000, 7.956815
-12.500000, 35.500000, 8.181348
-12.500000, 36.000000, 8.409747
-12.500000, 36.500000, 8.642041
-12.500000, 37.000000, 8.878262
-12.500000, 37.500000, 9.11844
-12.500000, 38.000000, 9.362609
-12.500000, 38.500000, 9.610803
-12.500000, 39.000000, 9.863056
-12.500000, 39.500000, 10.119406
-12.500000, 40.000000, 10.37989
-12.500000, 40.500000, 10.644547
-12.500000, 41.000000, 10.913418
-12.500000, 41.500000, 11.186545
-12.500000, 42.000000, 11.463972
-12.500000, 42.500000, 11.745742
-12.000000, -42.500000, 11.693479
-12.000000, -42.000000, 11.411507
-12.000000, -41.500000, 11.133867
-12.000000, -41.000000, 10.860514
-12.000000, -40.500000, 10.591404
-12.000000, -40.000000, 10.326496
-12.000000, -39.500000, 10.065748
-12.000000, -39.000000, 9.809121
-12.000000, -38.500000, 9.556579
-12.000000, -38.000000, 9.308083
-12.000000, -37.500000, 9.0636
-12.000000, -37.000000, 8.823096
-12.000000, -36.500000, 8.586537
-12.000000, -36.000000, 8.353892
-12.000000, -35.500000, 8.125132
-12.000000, -35.000000, 7.900227
-12.000000, -34.500000, 7.679149
-12.000000, -34.000000, 7.461871
-12.000000, -33.500000, 7.248369
-12.000000, -33.000000, 7.038617
-12.000000, -32.500000, 6.832592
-12.000000, -32.000000, 6.630271
-12.000000, -31.500000, 6.431635
-12.000000, -31.000000, 6.236661
-12.000000, -30.500000, 6.045332
-12.000000, -30.000000, 5.857629
-12.000000, -29.500000, 5.673535
-12.000000, -29.000000, 5.493034
-12.000000, -28.500000, 5.316111
-12.000000, -28.000000, 5.142751
-12.000000, -27.500000, 4.972943
-12.000000, -27.000000, 4.806673
-12.000000, -26.500000, 4.64393
-12.000000, -26.000000, 4.484705
-12.000000, -25.500000, 4.328988
-12.000000, -25.000000, 4.176769
-12.000000, -24.500000, 4.028043
-12.000000, -24.000000, 3.882801
-12.000000, -23.500000, 3.741039
-12.000000, -23.000000, 3.602749
-12.000000, -22.500000, 3.467929
-12.000000, -22.000000, 3.336572
-12.000000, -21.500000, 3.208677
-12.000000, -21.000000, 3.084239
-12.000000, -20.500000, 2.963256
-12.000000, -20.000000, 2.845724
-12.000000, -19.500000, 2.731641
-12.000000, -19.000000, 2.621005
-12.000000, -18.500000, 2.513811
-12.000000, -18.000000, 2.410056
-12.000000, -17.500000, 2.309735
-12.000000, -17.000000, 2.212843
-12.000000, -16.500000, 2.119372
-12.000000, -16.000000, 2.029315
-12.000000, -15.500000, 1.94266
-12.000000, -15.000000, 1.859394
-12.000000, -14.500000, 1.779502
-12.000000, -14.000000, 1.702965
-12.000000, -13.500000, 1.62976
-12.000000, -13.000000, 1.55986
-12.000000, -12.500000, 1.493236
-12.000000, -12.000000, 1.42985
-12.000000, -11.500000, 1.369662
-12.000000, -11.000000, 1.312625
-12.000000, -10.500000, 1.258689
-12.000000, -10.000000, 1.207795
-12.000000, -9.500000, 1.159881
-12.000000, -9.000000, 1.114881
-12.000000, -8.500000, 1.072722
-12.000000, -8.000000, 1.033332
-12.000000, -7.500000, 0.996634
-12.000000, -7.000000, 0.962554
-12.000000, -6.500000, 0.931019
-12.000000, -6.000000, 0.901959
-12.000000, -5.500000, 0.875313
-12.000000, -5.000000, 0.851024
-12.000000, -4.500000, 0.829049
-12.000000, -4.000000, 0.80935
-12.000000, -3.500000, 0.7919
-12.000000, -3.000000, 0.776681
-12.000000, -2.500000, 0.763681
-12.000000, -2.000000, 0.752891
-12.000000, -1.500000, 0.74431
-12.000000, -1.000000, 0.737936
-12.000000, -0.500000, 0.733773
-12.000000, 0.000000, 0.731824
-12.000000, 0.500000, 0.7321
-12.000000, 1.000000, 0.734611
-12.000000, 1.500000, 0.739375
-12.000000, 2.000000, 0.746414
-12.000000, 2.500000, 0.755753
-12.000000, 3.000000, 0.767427
-12.000000, 3.500000, 0.78147
-12.000000, 4.000000, 0.797924
-12.000000, 4.500000, 0.816835
-12.000000, 5.000000, 0.838251
-12.000000, 5.500000, 0.862223
-12.000000, 6.000000, 0.888803
-12.000000, 6.500000, 0.918044
-12.000000, 7.000000, 0.949998
-12.000000, 7.500000, 0.984719
-12.000000, 8.000000, 1.022257
-12.000000, 8.500000, 1.06266
-12.000000, 9.000000, 1.105977
-12.000000, 9.500000, 1.152252
-12.000000, 10.000000, 1.201527
-12.000000, 10.500000, 1.25384
-12.000000, 11.000000, 1.309228
-12.000000, 11.500000, 1.367725
-12.000000, 12.000000, 1.42936
-12.000000, 12.500000, 1.494162
-12.000000, 13.000000, 1.562155
-12.000000, 13.500000, 1.633363
-12.000000, 14.000000, 1.707807
-12.000000, 14.500000, 1.785503
-12.000000, 15.000000, 1.86647
-12.000000, 15.500000, 1.950722
-12.000000, 16.000000, 2.038273
-12.000000, 16.500000, 2.129133
-12.000000, 17.000000, 2.223315
-12.000000, 17.500000, 2.320827
-12.000000, 18.000000, 2.421679
-12.000000, 18.500000, 2.52588
-12.000000, 19.000000, 2.633437
-12.000000, 19.500000, 2.744358
-12.000000, 20.000000, 2.858649
-12.000000, 20.500000, 2.976319
-12.000000, 21.000000, 3.097373
-12.000000, 21.500000, 3.22182
-12.000000, 22.000000, 3.349666
-12.000000, 22.500000, 3.480919
-12.000000, 23.000000, 3.615587
-12.000000, 23.500000, 3.753677
-12.000000, 24.000000, 3.895199
-12.000000, 24.500000, 4.040161
-12.000000, 25.000000, 4.188574
-12.000000, 25.500000, 4.340447
-12.000000, 26.000000, 4.49579
-12.000000, 26.500000, 4.654616
-12.000000, 27.000000, 4.816937
-12.000000, 27.500000, 4.982766
-12.000000, 28.000000, 5.152115
-12.000000, 28.500000, 5.325
-12.000000, 29.000000, 5.501436
-12.000000, 29.500000, 5.681438
-12.000000, 30.000000, 5.865023
-12.000000, 30.500000, 6.05221
-12.000000, 31.000000, 6.243016
-12.000000, 31.500000, 6.437462
-12.000000, 32.000000, 6.635566
-12.000000, 32.500000, 6.837352
-12.000000, 33.000000, 7.042841
-12.000000, 33.500000, 7.252055
-12.000000, 34.000000, 7.465021
-12.000000, 34.500000, 7.681761
-12.000000, 35.000000, 7.902304
-12.000000, 35.500000, 8.126676
-12.000000, 36.000000, 8.354905
-12.000000, 36.500000, 8.587022
-12.000000, 37.000000, 8.823055
-12.000000, 37.500000, 9.063038
-12.000000, 38.000000, 9.307004
-12.000000, 38.500000, 9.554985
-12.000000, 39.000000, 9.807018
-12.000000, 39.500000, 10.063139
-12.000000, 40.000000, 10.323386
-12.000000, 40.500000, 10.587798
-12.000000, 41.000000, 10.856416
-12.000000, 41.500000, 11.129282
-12.000000, 42.000000, 11.406439
-12.000000, 42.500000, 11.687932
-11.500000, -42.500000, 11.638987
-11.500000, -42.000000, 11.357309
-11.500000, -41.500000, 11.079955
-11.500000, -41.000000, 10.806881
-11.500000, -40.500000, 10.538041
-11.500000, -40.000000, 10.273395
-11.500000, -39.500000, 10.012901
-11.500000, -39.000000, 9.756521
-11.500000, -38.500000, 9.504217
-11.500000, -38.000000, 9.255952
-11.500000, -37.500000, 9.01169
-11.500000, -37.000000, 8.771399
-11.500000, -36.500000, 8.535045
-11.500000, -36.000000, 8.302596
-11.500000, -35.500000, 8.074023
-11.500000, -35.000000, 7.849296
-11.500000, -34.500000, 7.628387
-11.500000, -34.000000, 7.411269
-11.500000, -33.500000, 7.197916
-11.500000, -33.000000, 6.988305
-11.500000, -32.500000, 6.78241
-11.500000, -32.000000, 6.58021
-11.500000, -31.500000, 6.381683
-11.500000, -31.000000, 6.186809
-11.500000, -30.500000, 5.995569
-11.500000, -30.000000, 5.807943
-11.500000, -29.500000, 5.623916
-11.500000, -29.000000, 5.44347
-11.500000, -28.500000, 5.26659
-11.500000, -28.000000, 5.093262
-11.500000, -27.500000, 4.923473
-11.500000, -27.000000, 4.75721
-11.500000, -26.500000, 4.594462
-11.500000, -26.000000, 4.435219
-11.500000, -25.500000, 4.27947
-11.500000, -25.000000, 4.127208
-11.500000, -24.500000, 3.978424
-11.500000, -24.000000, 3.833112
-11.500000, -23.500000, 3.691265
-11.500000, -23.000000, 3.552878
-11.500000, -22.500000, 3.417945
-11.500000, -22.000000, 3.286464
-11.500000, -21.500000, 3.15843
-11.500000, -21.000000, 3.03384
-11.500000, -20.500000, 2.912692
-11.500000, -20.000000, 2.794982
-11.500000, -19.500000, 2.680708
-11.500000, -19.000000, 2.569868
-11.500000, -18.500000, 2.462458
-11.500000, -18.000000, 2.358476
-11.500000, -17.500000, 2.257917
-11.500000, -17.000000, 2.160777
-11.500000, -16.500000, 2.067049
-11.500000, -16.000000, 1.976726
-11.500000, -15.500000, 1.889797
-11.500000, -15.000000, 1.806253
-11.500000, -14.500000, 1.726076
-11.500000, -14.000000, 1.649252
-11.500000, -13.500000, 1.575757
-11.500000, -13.000000, 1.505568
-11.500000, -12.500000, 1.438655
-11.500000, -12.000000, 1.374984
-11.500000, -11.500000, 1.314516
-11.500000, -11.000000, 1.257208
-11.500000, -10.500000, 1.203008
-11.500000, -10.000000, 1.151863
-11.500000, -9.500000, 1.103711
-11.500000, -9.000000, 1.058488
-11.500000, -8.500000, 1.016123
-11.500000, -8.000000, 0.976546
-11.500000, -7.500000, 0.939682
-11.500000, -7.000000, 0.905456
-11.500000, -6.500000, 0.873796
-11.500000, -6.000000, 0.844633
-11.500000, -5.500000, 0.817904
-11.500000, -5.000000, 0.793553
-11.500000, -4.500000, 0.771531
-11.500000, -4.000000, 0.7518
-11.500000, -3.500000, 0.734331
-11.500000, -3.000000, 0.719101
-11.500000, -2.500000, 0.706096
-11.500000, -2.000000, 0.695307
-11.500000, -1.500000, 0.68673
-11.500000, -1.000000, 0.680364
-11.500000, -0.500000, 0.676212
-11.500000, 0.000000, 0.674278
-11.500000, 0.500000, 0.674574
-11.500000, 1.000000, 0.677112
-11.500000, 1.500000, 0.68191
-11.500000, 2.000000, 0.688991
-11.500000, 2.500000, 0.698382
-11.500000, 3.000000, 0.710118
-11.500000, 3.500000, 0.724234
-11.500000, 4.000000, 0.740774
-11.500000, 4.500000, 0.759782
-11.500000, 5.000000, 0.781307
-11.500000, 5.500000, 0.805399
-11.500000, 6.000000, 0.832111
-11.500000, 6.500000, 0.861495
-11.500000, 7.000000, 0.893603
-11.500000, 7.500000, 0.928488
-11.500000, 8.000000, 0.966198
-11.500000, 8.500000, 1.006784
-11.500000, 9.000000, 1.05029
-11.500000, 9.500000, 1.096761
-11.500000, 10.000000, 1.146237
-11.500000, 10.500000, 1.198756
-11.500000, 11.000000, 1.254354
-11.500000, 11.500000, 1.313064
-11.500000, 12.000000, 1.374913
-11.500000, 12.500000, 1.439931
-11.500000, 13.000000, 1.50814
-11.500000, 13.500000, 1.579562
-11.500000, 14.000000, 1.654218
-11.500000, 14.500000, 1.732124
-11.500000, 15.000000, 1.813297
-11.500000, 15.500000, 1.897751
-11.500000, 16.000000, 1.985498
-11.500000, 16.500000, 2.076549
-11.500000, 17.000000, 2.170916
-11.500000, 17.500000, 2.268606
-11.500000, 18.000000, 2.369629
-11.500000, 18.500000, 2.473992
-11.500000, 19.000000, 2.581703
-11.500000, 19.500000, 2.692769
-11.500000, 20.000000, 2.807197
-11.500000, 20.500000, 2.924994
-11.500000, 21.000000, 3.046167
-11.500000, 21.500000, 3.170721
-11.500000, 22.000000, 3.298665
-11.500000, 22.500000, 3.430006
-11.500000, 23.000000, 3.564752
-11.500000, 23.500000, 3.70291
-11.500000, 24.000000, 3.844489
-11.500000, 24.500000, 3.989499
-11.500000, 25.000000, 4.137948
-11.500000, 25.500000, 4.289847
-11.500000, 26.000000, 4.445206
-11.500000, 26.500000, 4.604038
-11.500000, 27.000000, 4.766355
-11.500000, 27.500000, 4.932168
-11.500000, 28.000000, 5.101493
-11.500000, 28.500000, 5.274343
-11.500000, 29.000000, 5.450734
-11.500000, 29.500000, 5.630682
-11.500000, 30.000000, 5.814203
-11.500000, 30.500000, 6.001316
-11.500000, 31.000000, 6.19204
-11.500000, 31.500000, 6.386392
-11.500000, 32.000000, 6.584396
-11.500000, 32.500000, 6.786071
-11.500000, 33.000000, 6.991439
-11.500000, 33.500000, 7.200525
-11.500000, 34.000000, 7.413353
-11.500000, 34.500000, 7.629948
-11.500000, 35.000000, 7.850336
-11.500000, 35.500000, 8.074545
-11.500000, 36.000000, 8.302602
-11.500000, 36.500000, 8.534539
-11.500000, 37.000000, 8.770385
-11.500000, 37.500000, 9.010171
-11.500000, 38.000000, 9.253932
-11.500000, 38.500000, 9.501702
-11.500000, 39.000000, 9.753514
-11.500000, 39.500000, 10.009407
-11.500000, 40.000000, 10.269418
-11.500000, 40.500000, 10.533587
-11.500000, 41.000000, 10.801953
-11.500000, 41.500000, 11.07456
-11.500000, 42.000000, 11.35145
-11.500000, 42.500000, 11.632668
-11.000000, -42.500000, 11.586969
-11.000000, -42.000000, 11.305582
-11.000000, -41.500000, 11.028512
-11.000000, -41.000000, 10.755713
-11.000000, -40.500000, 10.487142
-11.000000, -40.000000, 10.222757
-11.000000, -39.500000, 9.962517
-11.000000, -39.000000, 9.706384
-11.000000, -38.500000, 9.454318
-11.000000, -38.000000, 9.206283
-11.000000, -37.500000, 8.962245
-11.000000, -37.000000, 8.722168
-11.000000, -36.500000, 8.486021
-11.000000, -36.000000, 8.253771
-11.000000, -35.500000, 8.025387
-11.000000, -35.000000, 7.800842
-11.000000, -34.500000, 7.580105
-11.000000, -34.000000, 7.363151
-11.000000, -33.500000, 7.149953
-11.000000, -33.000000, 6.940487
-11.000000, -32.500000, 6.734728
-11.000000, -32.000000, 6.532654
-11.000000, -31.500000, 6.334243
-11.000000, -31.000000, 6.139475
-11.000000, -30.500000, 5.94833
-11.000000, -30.000000, 5.760789
-11.000000, -29.500000, 5.576835
-11.000000, -29.000000, 5.396452
-11.000000, -28.500000, 5.219623
-11.000000, -28.000000, 5.046335
-11.000000, -27.500000, 4.876573
-11.000000, -27.000000, 4.710326
-11.000000, -26.500000, 4.547581
-11.000000, -26.000000, 4.388327
-11.000000, -25.500000, 4.232556
-11.000000, -25.000000, 4.080258
-11.000000, -24.500000, 3.931425
-11.000000, -24.000000, 3.78605
-11.000000, -23.500000, 3.644127
-11.000000, -23.000000, 3.505649
-11.000000, -22.500000, 3.370613
-11.000000, -22.000000, 3.239014
-11.000000, -21.500000, 3.110848
-11.000000, -21.000000, 2.986112
-11.000000, -20.500000, 2.864803
-11.000000, -20.000000, 2.74692
-11.000000, -19.500000, 2.632459
-11.000000, -19.000000, 2.521418
-11.000000, -18.500000, 2.413795
-11.000000, -18.000000, 2.309586
-11.000000, -17.500000, 2.208789
-11.000000, -17.000000, 2.1114
-11.000000, -16.500000, 2.017412
-11.000000, -16.000000, 1.926818
-11.000000, -15.500000, 1.839611
-11.000000, -15.000000, 1.75578
-11.000000, -14.500000, 1.675311
-11.000000, -14.000000, 1.598188
-11.000000, -13.500000, 1.524392
-11.000000, -13.000000, 1.453899
-11.000000, -12.500000, 1.386682
-11.000000, -12.000000, 1.322709
-11.000000, -11.500000, 1.261943
-11.000000, -11.000000, 1.204342
-11.000000, -10.500000, 1.149859
-11.000000, -10.000000, 1.09844
-11.000000, -9.500000, 1.050026
-11.000000, -9.000000, 1.004557
-11.000000, -8.500000, 0.961963
-11.000000, -8.000000, 0.922175
-11.000000, -7.500000, 0.885121
-11.000000, -7.000000, 0.850726
-11.000000, -6.500000, 0.81892
-11.000000, -6.000000, 0.789634
-11.000000, -5.500000, 0.762804
-11.000000, -5.000000, 0.738373
-11.000000, -4.500000, 0.71629
-11.000000, -4.000000, 0.696515
-11.000000, -3.500000, 0.679016
-11.000000, -3.000000, 0.663767
-11.000000, -2.500000, 0.650753
-11.000000, -2.000000, 0.639962
-11.000000, -1.500000, 0.631388
-11.000000, -1.000000, 0.625031
-11.000000, -0.500000, 0.620891
-11.000000, 0.000000, 0.618977
-11.000000, 0.500000, 0.619298
-11.000000, 1.000000, 0.621869
-11.000000, 1.500000, 0.626709
-11.000000, 2.000000, 0.633841
-11.000000, 2.500000, 0.643295
-11.000000, 3.000000, 0.655105
-11.000000, 3.500000, 0.669307
-11.000000, 4.000000, 0.685946
-11.000000, 4.500000, 0.705065
-11.000000, 5.000000, 0.726714
-11.000000, 5.500000, 0.750943
-11.000000, 6.000000, 0.777804
-11.000000, 6.500000, 0.807348
-11.000000, 7.000000, 0.839627
-11.000000, 7.500000, 0.874693
-11.000000, 8.000000, 0.912594
-11.000000, 8.500000, 0.953378
-11.000000, 9.000000, 0.99709
-11.000000, 9.500000, 1.043772
-11.000000, 10.000000, 1.093465
-11.000000, 10.500000, 1.146206
-11.000000, 11.000000, 1.202028
-11.000000, 11.500000, 1.260963
-11.000000, 12.000000, 1.323039
-11.000000, 12.500000, 1.388283
-11.000000, 13.000000, 1.456717
-11.000000, 13.500000, 1.528363
-11.000000, 14.000000, 1.60324
-11.000000, 14.500000, 1.681363
-11.000000, 15.000000, 1.762748
-11.000000, 15.500000, 1.847409
-11.000000, 16.000000, 1.935357
-11.000000, 16.500000, 2.026602
-11.000000, 17.000000, 2.121156
-11.000000, 17.500000, 2.219025
-11.000000, 18.000000, 2.32022
-11.000000, 18.500000, 2.424746
-11.000000, 19.000000, 2.53261
-11.000000, 19.500000, 2.643821
-11.000000, 20.000000, 2.758384
-11.000000, 20.500000, 2.876306
-11.000000, 21.000000, 2.997593
-11.000000, 21.500000, 3.122253
-11.000000, 22.000000, 3.250292
-11.000000, 22.500000, 3.381717
-11.000000, 23.000000, 3.516536
-11.000000, 23.500000, 3.654757
-11.000000, 24.000000, 3.796389
-11.000000, 24.500000, 3.94144
-11.000000, 25.000000, 4.089921
-11.000000, 25.500000, 4.241841
-11.000000, 26.000000, 4.397212
-11.000000, 26.500000, 4.556044
-11.000000, 27.000000, 4.718351
-11.000000, 27.500000, 4.884144
-11.000000, 28.000000, 5.053439
-11.000000, 28.500000, 5.22625
-11.000000, 29.000000, 5.402591
-11.000000, 29.500000, 5.58248
-11.000000, 30.000000, 5.765932
-11.000000, 30.500000, 5.952967
-11.000000, 31.000000, 6.143603
-11.000000, 31.500000, 6.33786
-11.000000, 32.000000, 6.535757
-11.000000, 32.500000, 6.737318
-11.000000, 33.000000, 6.942563
-11.000000, 33.500000, 7.151518
-11.000000, 34.000000, 7.364205
-11.000000, 34.500000, 7.580651
-11.000000, 35.000000, 7.800882
-11.000000, 35.500000, 8.024926
-11.000000, 36.000000, 8.252811
-11.000000, 36.500000, 8.484566
-11.000000, 37.000000, 8.720223
-11.000000, 37.500000, 8.959813
-11.000000, 38.000000, 9.20337
-11.000000, 38.500000, 9.450927
-11.000000, 39.000000, 9.70252
-11.000000, 39.500000, 9.958186
-11.000000, 40.000000, 10.217962
-11.000000, 40.500000, 10.481889
-11.000000, 41.000000, 10.750006
-11.000000, 41.500000, 11.022355
-11.000000, 42.000000, 11.298981
-11.000000, 42.500000, 11.579928
-10.500000, -42.500000, 11.537401
-10.500000, -42.000000, 11.256302
-10.500000, -41.500000, 10.979512
-10.500000, -41.000000, 10.706987
-10.500000, -40.500000, 10.438683
-10.500000, -40.000000, 10.174557
-10.500000, -39.500000, 9.91457
-10.500000, -39.000000, 9.658682
-10.500000, -38.500000, 9.406854
-10.500000, -38.000000, 9.159051
-10.500000, -37.500000, 8.915236
-10.500000, -37.000000, 8.675375
-10.500000, -36.500000, 8.439436
-10.500000, -36.000000, 8.207386
-10.500000, -35.500000, 7.979195
-10.500000, -35.000000, 7.754833
-10.500000, -34.500000, 7.534273
-10.500000, -34.000000, 7.317486
-10.500000, -33.500000, 7.104447
-10.500000, -33.000000, 6.89513
-10.500000, -32.500000, 6.689512
-10.500000, -32.000000, 6.487569
-10.500000, -31.500000, 6.28928
-10.500000, -31.000000, 6.094624
-10.500000, -30.500000, 5.903581
-10.500000, -30.000000, 5.716132
-10.500000, -29.500000, 5.532259
-10.500000, -29.000000, 5.351945
-10.500000, -28.500000, 5.175175
-10.500000, -28.000000, 5.001934
-10.500000, -27.500000, 4.832208
-10.500000, -27.000000, 4.665985
-10.500000, -26.500000, 4.503251
-10.500000, -26.000000, 4.343997
-10.500000, -25.500000, 4.188212
-10.500000, -25.000000, 4.035886
-10.500000, -24.500000, 3.887013
-10.500000, -24.000000, 3.741584
-10.500000, -23.500000, 3.599593
-10.500000, -23.000000, 3.461034
-10.500000, -22.500000, 3.325902
-10.500000, -22.000000, 3.194193
-10.500000, -21.500000, 3.065902
-10.500000, -21.000000, 2.941028
-10.500000, -20.500000, 2.819566
-10.500000, -20.000000, 2.701514
-10.500000, -19.500000, 2.586871
-10.500000, -19.000000, 2.475634
-10.500000, -18.500000, 2.367801
-10.500000, -18.000000, 2.263369
-10.500000, -17.500000, 2.162336
-10.500000, -17.000000, 2.064697
-10.500000, -16.500000, 1.970448
-10.500000, -16.000000, 1.879582
-10.500000, -15.500000, 1.792093
-10.500000, -15.000000, 1.70797
-10.500000, -14.500000, 1.627201
-10.500000, -14.000000, 1.549771
-10.500000, -13.500000, 1.475663
-10.500000, -13.000000, 1.404855
-10.500000, -12.500000, 1.337321
-10.500000, -12.000000, 1.273031
-10.500000, -11.500000, 1.211951
-10.500000, -11.000000, 1.154039
-10.500000, -10.500000, 1.099252
-10.500000, -10.000000, 1.047538
-10.500000, -9.500000, 0.998842
-10.500000, -9.000000, 0.953103
-10.500000, -8.500000, 0.910257
-10.500000, -8.000000, 0.870235
-10.500000, -7.500000, 0.832967
-10.500000, -7.000000, 0.798382
-10.500000, -6.500000, 0.766408
-10.500000, -6.000000, 0.736977
-10.500000, -5.500000, 0.710026
-10.500000, -5.000000, 0.685496
-10.500000, -4.500000, 0.663337
-10.500000, -4.000000, 0.643504
-10.500000, -3.500000, 0.625963
-10.500000, -3.000000, 0.610687
-10.500000, -2.500000, 0.597657
-10.500000, -2.000000, 0.58686
-10.500000, -1.500000, 0.578287
-10.500000, -1.000000, 0.571939
-10.500000, -0.500000, 0.567815
-10.500000, 0.000000, 0.565924
-10.500000, 0.500000, 0.566277
-10.500000, 1.000000, 0.568888
-10.500000, 1.500000, 0.573778
-10.500000, 2.000000, 0.580972
-10.500000, 2.500000, 0.590499
-10.500000, 3.000000, 0.602395
-10.500000, 3.500000, 0.616697
-10.500000, 4.000000, 0.633448
-10.500000, 4.500000, 0.652693
-10.500000, 5.000000, 0.674482
-10.500000, 5.500000, 0.698864
-10.500000, 6.000000, 0.72589
-10.500000, 6.500000, 0.755611
-10.500000, 7.000000, 0.788079
-10.500000, 7.500000, 0.823342
-10.500000, 8.000000, 0.86145
-10.500000, 8.500000, 0.902448
-10.500000, 9.000000, 0.946382
-10.500000, 9.500000, 0.993291
-10.500000, 10.000000, 1.043215
-10.500000, 10.500000, 1.09619
-10.500000, 11.000000, 1.152249
-10.500000, 11.500000, 1.211422
-10.500000, 12.000000, 1.273736
-10.500000, 12.500000, 1.339216
-10.500000, 13.000000, 1.407885
-10.500000, 13.500000, 1.479762
-10.500000, 14.000000, 1.554866
-10.500000, 14.500000, 1.633211
-10.500000, 15.000000, 1.714814
-10.500000, 15.500000, 1.799685
-10.500000, 16.000000, 1.887837
-10.500000, 16.500000, 1.979279
-10.500000, 17.000000, 2.074021
-10.500000, 17.500000, 2.172071
-10.500000, 18.000000, 2.273436
-10.500000, 18.500000, 2.378124
-10.500000, 19.000000, 2.486141
-10.500000, 19.500000, 2.597494
-10.500000, 20.000000, 2.712189
-10.500000, 20.500000, 2.830233
-10.500000, 21.000000, 2.951632
-10.500000, 21.500000, 3.076392
-10.500000, 22.000000, 3.204521
-10.500000, 22.500000, 3.336026
-10.500000, 23.000000, 3.470914
-10.500000, 23.500000, 3.609193
-10.500000, 24.000000, 3.750872
-10.500000, 24.500000, 3.89596
-10.500000, 25.000000, 4.044467
-10.500000, 25.500000, 4.196403
-10.500000, 26.000000, 4.351779
-10.500000, 26.500000, 4.510606
-10.500000, 27.000000, 4.672897
-10.500000, 27.500000, 4.838666
-10.500000, 28.000000, 5.007926
-10.500000, 28.500000, 5.180691
-10.500000, 29.000000, 5.356978
-10.500000, 29.500000, 5.536802
-10.500000, 30.000000, 5.720182
-10.500000, 30.500000, 5.907134
-10.500000, 31.000000, 6.097678
-10.500000, 31.500000, 6.291834
-10.500000, 32.000000, 6.489622
-10.500000, 32.500000, 6.691065
-10.500000, 33.000000, 6.896184
-10.500000, 33.500000, 7.105004
-10.500000, 34.000000, 7.317549
-10.500000, 34.500000, 7.533844
-10.500000, 35.000000, 7.753916
-10.500000, 35.500000, 7.977793
-10.500000, 36.000000, 8.205504
-10.500000, 36.500000, 8.437077
-10.500000, 37.000000, 8.672544
-10.500000, 37.500000, 8.911938
-10.500000, 38.000000, 9.15529
-10.500000, 38.500000, 9.402636
-10.500000, 39.000000, 9.65401
-10.500000, 39.500000, 9.90945
-10.500000, 40.000000, 10.168994
-10.500000, 40.500000, 10.432681
-10.500000, 41.000000, 10.700551
-10.500000, 41.500000, 10.972646
-10.500000, 42.000000, 11.249011
-10.500000, 42.500000, 11.52969
-10.000000, -42.500000, 11.490264
-10.000000, -42.000000, 11.209447
-10.000000, -41.500000, 10.932934
-10.000000, -41.000000, 10.660679
-10.000000, -40.500000, 10.392639
-10.000000, -40.000000, 10.128771
-10.000000, -39.500000, 9.869034
-10.000000, -39.000000, 9.61339
-10.000000, -38.500000, 9.361799
-10.000000, -38.000000, 9.114226
-10.000000, -37.500000, 8.870634
-10.000000, -37.000000, 8.63099
-10.000000, -36.500000, 8.39526
-10.000000, -36.000000, 8.163412
-10.000000, -35.500000, 7.935415
-10.000000, -35.000000, 7.71124
-10.000000, -34.500000, 7.490858
-10.000000, -34.000000, 7.274242
-10.000000, -33.500000, 7.061365
-10.000000, -33.000000, 6.852202
-10.000000, -32.500000, 6.646729
-10.000000, -32.000000, 6.444923
-10.000000, -31.500000, 6.246761
-10.000000, -31.000000, 6.052223
-10.000000, -30.500000, 5.861287
-10.000000, -30.000000, 5.673936
-10.000000, -29.500000, 5.490151
-10.000000, -29.000000, 5.309915
-10.000000, -28.500000, 5.133211
-10.000000, -28.000000, 4.960026
-10.000000, -27.500000, 4.790344
-10.000000, -27.000000, 4.624152
-10.000000, -26.500000, 4.461438
-10.000000, -26.000000, 4.302192
-10.000000, -25.500000, 4.146402
-10.000000, -25.000000, 3.994059
-10.000000, -24.500000, 3.845154
-10.000000, -24.000000, 3.699681
-10.000000, -23.500000, 3.557631
-10.000000, -23.000000, 3.419
-10.000000, -22.500000, 3.283781
-10.000000, -22.000000, 3.15197
-10.000000, -21.500000, 3.023564
-10.000000, -21.000000, 2.898558
-10.000000, -20.500000, 2.776951
-10.000000, -20.000000, 2.658739
-10.000000, -19.500000, 2.54392
-10.000000, -19.000000, 2.432493
-10.000000, -18.500000, 2.324455
-10.000000, -18.000000, 2.219804
-10.000000, -17.500000, 2.118537
-10.000000, -17.000000, 2.020651
-10.000000, -16.500000, 1.926142
-10.000000, -16.000000, 1.835004
-10.000000, -15.500000, 1.74723
-10.000000, -15.000000, 1.662812
-10.000000, -14.500000, 1.581739
-10.000000, -14.000000, 1.503997
-10.000000, -13.500000, 1.42957
-10.000000, -13.000000, 1.358437
-10.000000, -12.500000, 1.290574
-10.000000, -12.000000, 1.225955
-10.000000, -11.500000, 1.164544
-10.000000, -11.000000, 1.106306
-10.000000, -10.500000, 1.051198
-10.000000, -10.000000, 0.99917
-10.000000, -9.500000, 0.950171
-10.000000, -9.000000, 0.904142
-10.000000, -8.500000, 0.861021
-10.000000, -8.000000, 0.820743
-10.000000, -7.500000, 0.783239
-10.000000, -7.000000, 0.748439
-10.000000, -6.500000, 0.716274
-10.000000, -6.000000, 0.686678
-10.000000, -5.500000, 0.659585
-10.000000, -5.000000, 0.634938
-10.000000, -4.500000, 0.612684
-10.000000, -4.000000, 0.592778
-10.000000, -3.500000, 0.575183
-10.000000, -3.000000, 0.559869
-10.000000, -2.500000, 0.546815
-10.000000, -2.000000, 0.536006
-10.000000, -1.500000, 0.527433
-10.000000, -1.000000, 0.521093
-10.000000, -0.500000, 0.516988
-10.000000, 0.000000, 0.515124
-10.000000, 0.500000, 0.515514
-10.000000, 1.000000, 0.518173
-10.000000, 1.500000, 0.523122
-10.000000, 2.000000, 0.530388
-10.000000, 2.500000, 0.540001
-10.000000, 3.000000, 0.551995
-10.000000, 3.500000, 0.56641
-10.000000, 4.000000, 0.583289
-10.000000, 4.500000, 0.602676
-10.000000, 5.000000, 0.624621
-10.000000, 5.500000, 0.649171
-10.000000, 6.000000, 0.676379
-10.000000, 6.500000, 0.706294
-10.000000, 7.000000, 0.738965
-10.000000, 7.500000, 0.774443
-10.000000, 8.000000, 0.812773
-10.000000, 8.500000, 0.854001
-10.000000, 9.000000, 0.89817
-10.000000, 9.500000, 0.945321
-10.000000, 10.000000, 0.995489
-10.000000, 10.500000, 1.048711
-10.000000, 11.000000, 1.105018
-10.000000, 11.500000, 1.164439
-10.000000, 12.000000, 1.227
-10.000000, 12.500000, 1.292725
-10.000000, 13.000000, 1.361636
-10.000000, 13.500000, 1.433751
-10.000000, 14.000000, 1.509088
-10.000000, 14.500000, 1.587661
-10.000000, 15.000000, 1.669484
-10.000000, 15.500000, 1.754569
-10.000000, 16.000000, 1.842926
-10.000000, 16.500000, 1.934566
-10.000000, 17.000000, 2.029496
-10.000000, 17.500000, 2.127726
-10.000000, 18.000000, 2.229261
-10.000000, 18.500000, 2.334108
-10.000000, 19.000000, 2.442275
-10.000000, 19.500000, 2.553767
-10.000000, 20.000000, 2.668591
-10.000000, 20.500000, 2.786753
-10.000000, 21.000000, 2.908258
-10.000000, 21.500000, 3.033115
-10.000000, 22.000000, 3.161329
-10.000000, 22.500000, 3.292908
-10.000000, 23.000000, 3.427859
-10.000000, 23.500000, 3.566191
-10.000000, 24.000000, 3.707912
-10.000000, 24.500000, 3.853031
-10.000000, 25.000000, 4.001558
-10.000000, 25.500000, 4.153504
-10.000000, 26.000000, 4.308879
-10.000000, 26.500000, 4.467695
-10.000000, 27.000000, 4.629966
-10.000000, 27.500000, 4.795704
-10.000000, 28.000000, 4.964923
-10.000000, 28.500000, 5.137638
-10.000000, 29.000000, 5.313865
-10.000000, 29.500000, 5.493621
-10.000000, 30.000000, 5.676922
-10.000000, 30.500000, 5.863787
-10.000000, 31.000000, 6.054236
-10.000000, 31.500000, 6.248287
-10.000000, 32.000000, 6.445963
-10.000000, 32.500000, 6.647284
-10.000000, 33.000000, 6.852275
-10.000000, 33.500000, 7.060957
-10.000000, 34.000000, 7.273357
-10.000000, 34.500000, 7.489499
-10.000000, 35.000000, 7.709411
-10.000000, 35.500000, 7.93312
-10.000000, 36.000000, 8.160655
-10.000000, 36.500000, 8.392046
-10.000000, 37.000000, 8.627324
-10.000000, 37.500000, 8.866521
-10.000000, 38.000000, 9.10967
-10.000000, 38.500000, 9.356805
-10.000000, 39.000000, 9.607962
-10.000000, 39.500000, 9.863178
-10.000000, 40.000000, 10.122491
-10.000000, 40.500000, 10.38594
-10.000000, 41.000000, 10.653567
-10.000000, 41.500000, 10.925412
-10.000000, 42.000000, 11.20152
-10.000000, 42.500000, 11.481935
-9.500000, -42.500000, 11.445537
-9.500000, -42.000000, 11.164999
-9.500000, -41.500000, 10.888758
-9.500000, -41.000000, 10.616769
-9.500000, -40.500000, 10.348989
-9.500000, -40.000000, 10.085375
-9.500000, -39.500000, 9.825886
-9.500000, -39.000000, 9.570484
-9.500000, -38.500000, 9.319129
-9.500000, -38.000000, 9.071785
-9.500000, -37.500000, 8.828416
-9.500000, -37.000000, 8.588988
-9.500000, -36.500000, 8.353467
-9.500000, -36.000000, 8.121821
-9.500000, -35.500000, 7.89402
-9.500000, -35.000000, 7.670033
-9.500000, -34.500000, 7.449832
-9.500000, -34.000000, 7.233389
-9.500000, -33.500000, 7.020677
-9.500000, -33.000000, 6.811672
-9.500000, -32.500000, 6.606348
-9.500000, -32.000000, 6.404682
-9.500000, -31.500000, 6.206652
-9.500000, -31.000000, 6.012236
-9.500000, -30.500000, 5.821415
