-18.500000, -15.500000, -0.2437577
-18.500000, -16.000000, -0.2522046
-18.500000, -16.500000, -0.2607736
-18.500000, -17.000000, -0.269457
-18.500000, -17.500000, -0.2782435
-18.500000, -18.000000, -0.2871262
-18.500000, -18.500000, -0.2960957
-18.500000, -19.000000, -0.3051478
-18.500000, -19.500000, -0.3142728
-18.500000, -20.000000, -0.3234666
-18.500000, -20.500000, -0.3327242
-18.500000, -21.000000, -0.3420392
-18.500000, -21.500000, -0.3514076
-18.500000, -22.000000, -0.3608248
-18.500000, -22.500000, -0.3702879
-18.500000, -23.000000, -0.3797931
-18.500000, -23.500000, -0.3893373
-18.500000, -24.000000, -0.3989188
-18.500000, -24.500000, -0.4085345
-18.500000, -25.000000, -0.4181817
-18.500000, -25.500000, -0.4278592
-18.500000, -26.000000, -0.4375654
-18.500000, -26.500000, -0.4472992
-18.500000, -27.000000, -0.4570601
-18.500000, -27.500000, -0.4668461
-18.500000, -28.000000, -0.4766568
-18.500000, -28.500000, -0.4864915
-18.500000, -29.000000, -0.4963509
-18.500000, -29.500000, -0.5062345
-18.500000, -30.000000, -0.5161423
-18.500000, -30.500000, -0.5260752
-18.500000, -31.000000, -0.5360325
-18.500000, -31.500000, -0.5460163
-18.500000, -32.000000, -0.5560255
-18.500000, -32.500000, -0.5660627
-18.500000, -33.000000, -0.5761271
-18.500000, -33.500000, -0.5862218
-18.500000, -34.000000, -0.5963468
-18.500000, -34.500000, -0.6065048
-18.500000, -35.000000, -0.6166962
-18.500000, -35.500000, -0.6269237
-18.500000, -36.000000, -0.6371875
-18.500000, -36.500000, -0.647492
-18.500000, -37.000000, -0.6578373
-18.500000, -37.500000, -0.6682257
-18.500000, -38.000000, -0.6786614
-18.500000, -38.500000, -0.6891449
-18.500000, -39.000000, -0.6996805
-18.500000, -39.500000, -0.7102697
-18.500000, -40.000000, -0.7209163
-18.500000, -40.500000, -0.7316233
-18.500000, -41.000000, -0.7423938
-18.500000, -41.500000, -0.7532304
-18.500000, -42.000000, -0.7641378
-18.500000, -42.500000, -0.7751185
-19.000000, 42.500000, -0.981629
-19.000000, 42.000000, -0.968351
-19.000000, 41.500000, -0.9551907
-19.000000, 41.000000, -0.9421456
-19.000000, 40.500000, -0.9292096
-19.000000, 40.000000, -0.9163779
-19.000000, 39.500000, -0.903649
-19.000000, 39.000000, -0.8910159
-19.000000, 38.500000, -0.8784775
-19.000000, 38.000000, -0.8660291
-19.000000, 37.500000, -0.8536661
-19.000000, 37.000000, -0.8413879
-19.000000, 36.500000, -0.829189
-19.000000, 36.000000, -0.8170672
-19.000000, 35.500000, -0.8050198
-19.000000, 35.000000, -0.7930446
-19.000000, 34.500000, -0.7811389
-19.000000, 34.000000, -0.7692992
-19.000000, 33.500000, -0.7575247
-19.000000, 33.000000, -0.7458127
-19.000000, 32.500000, -0.7341599
-19.000000, 32.000000, -0.7225663
-19.000000, 31.500000, -0.7110303
-19.000000, 31.000000, -0.6995483
-19.000000, 30.500000, -0.6881203
-19.000000, 30.000000, -0.6767441
-19.000000, 29.500000, -0.6654191
-19.000000, 29.000000, -0.6541435
-19.000000, 28.500000, -0.6429172
-19.000000, 28.000000, -0.6317395
-19.000000, 27.500000, -0.6206086
-19.000000, 27.000000, -0.6095241
-19.000000, 26.500000, -0.5984854
-19.000000, 26.000000, -0.5874933
-19.000000, 25.500000, -0.5765462
-19.000000, 25.000000, -0.5656453
-19.000000, 24.500000, -0.5547899
-19.000000, 24.000000, -0.5439813
-19.000000, 23.500000, -0.533219
-19.000000, 23.000000, -0.5225031
-19.000000, 22.500000, -0.5118352
-19.000000, 22.000000, -0.5012164
-19.000000, 21.500000, -0.4906472
-19.000000, 21.000000, -0.4801287
-19.000000, 20.500000, -0.4696634
-19.000000, 20.000000, -0.4592521
-19.000000, 19.500000, -0.4488963
-19.000000, 19.000000, -0.4385998
-19.000000, 18.500000, -0.4283638
-19.000000, 18.000000, -0.4181909
-19.000000, 17.500000, -0.4080831
-19.000000, 17.000000, -0.398045
-19.000000, 16.500000, -0.3880793
-19.000000, 16.000000, -0.3781893
-19.000000, 15.500000, -0.3683796
-19.000000, 15.000000, -0.3586531
-19.000000, 14.500000, -0.3490143
-19.000000, 14.000000, -0.3394699
-19.000000, 13.500000, -0.3300228
-19.000000, 13.000000, -0.3206797
-19.000000, 12.500000, -0.3114462
-19.000000, 12.000000, -0.3023284
-19.000000, 11.500000, -0.293333
-19.000000, 11.000000, -0.2844675
-19.000000, 10.500000, -0.2757383
-19.000000, 10.000000, -0.2671537
-19.000000, 9.500000, -0.2587226
-19.000000, 9.000000, -0.2504531
-19.000000, 8.500000, -0.2423546
-19.000000, 8.000000, -0.2344368
-19.000000, 7.500000, -0.2267109
-19.000000, 7.000000, -0.2191862
-19.000000, 6.500000, -0.2118754
-19.000000, 6.000000, -0.2047896
-19.000000, 5.500000, -0.1979419
-19.000000, 5.000000, -0.191344
-19.000000, 4.500000, -0.1850099
-19.000000, 4.000000, -0.1789546
-19.000000, 3.500000, -0.1731918
-19.000000, 3.000000, -0.1677372
-19.000000, 2.500000, -0.1626049
-19.000000, 2.000000, -0.1578113
-19.000000, 1.500000, -0.1533741
-19.000000, 1.000000, -0.1493073
-19.000000, 0.500000, -0.1456301
-19.000000, 0.000000, -0.142357
-19.000000, -0.500000, -0.1395061
-19.000000, -1.000000, -0.1370923
-19.000000, -1.500000, -0.1351311
-19.000000, -2.000000, -0.1336393
-19.000000, -2.500000, -0.1326279
-19.000000, -3.000000, -0.1321092
-19.000000, -3.500000, -0.1320928
-19.000000, -4.000000, -0.1325846
-19.000000, -4.500000, -0.1335869
-19.000000, -5.000000, -0.1351
-19.000000, -5.500000, -0.1371179
-19.000000, -6.000000, -0.1396306
-19.000000, -6.500000, -0.1426264
-19.000000, -7.000000, -0.1460882
-19.000000, -7.500000, -0.1499969
-19.000000, -8.000000, -0.1543328
-19.000000, -8.500000, -0.1590726
-19.000000, -9.000000, -0.1641961
-19.000000, -9.500000, -0.1696796
-19.000000, -10.000000, -0.1755017
-19.000000, -10.500000, -0.1816403
-19.000000, -11.000000, -0.1880755
-19.000000, -11.500000, -0.194787
-19.000000, -12.000000, -0.2017554
-19.000000, -12.500000, -0.2089642
-19.000000, -13.000000, -0.2163947
-19.000000, -13.500000, -0.2240308
-19.000000, -14.000000, -0.2318599
-19.000000, -14.500000, -0.2398653
-19.000000, -15.000000, -0.2480351
-19.000000, -15.500000, -0.2563576
-19.000000, -16.000000, -0.2648213
-19.000000, -16.500000, -0.2734143
-19.000000, -17.000000, -0.282128
-19.000000, -17.500000, -0.2909531
-19.000000, -18.000000, -0.2998809
-19.000000, -18.500000, -0.3089048
-19.000000, -19.000000, -0.3180158
-19.000000, -19.500000, -0.3272093
-19.000000, -20.000000, -0.3364771
-19.000000, -20.500000, -0.3458154
-19.000000, -21.000000, -0.3552187
-19.000000, -21.500000, -0.3646822
-19.000000, -22.000000, -0.3742024
-19.000000, -22.500000, -0.3837742
-19.000000, -23.000000, -0.3933951
-19.000000, -23.500000, -0.403061
-19.000000, -24.000000, -0.4127713
-19.000000, -24.500000, -0.4225209
-19.000000, -25.000000, -0.4323093
-19.000000, -25.500000, -0.4421352
-19.000000, -26.000000, -0.4519953
-19.000000, -26.500000, -0.4618884
-19.000000, -27.000000, -0.4718151
-19.000000, -27.500000, -0.4817726
-19.000000, -28.000000, -0.4917615
-19.000000, -28.500000, -0.5017802
-19.000000, -29.000000, -0.5118295
-19.000000, -29.500000, -0.5219081
-19.000000, -30.000000, -0.5320171
-19.000000, -30.500000, -0.5421573
-19.000000, -31.000000, -0.5523273
-19.000000, -31.500000, -0.5625283
-19.000000, -32.000000, -0.5727623
-19.000000, -32.500000, -0.5830289
-19.000000, -33.000000, -0.5933287
-19.000000, -33.500000, -0.6036647
-19.000000, -34.000000, -0.6140372
-19.000000, -34.500000, -0.6244469
-19.000000, -35.000000, -0.6348966
-19.000000, -35.500000, -0.6453868
-19.000000, -36.000000, -0.6559212
-19.000000, -36.500000, -0.666501
-19.000000, -37.000000, -0.6771279
-19.000000, -37.500000, -0.6878041
-19.000000, -38.000000, -0.6985321
-19.000000, -38.500000, -0.7093155
-19.000000, -39.000000, -0.7201559
-19.000000, -39.500000, -0.731057
-19.000000, -40.000000, -0.7420219
-19.000000, -40.500000, -0.7530526
-19.000000, -41.000000, -0.7641536
-19.000000, -41.500000, -0.7753277
-19.000000, -42.000000, -0.786578
-19.000000, -42.500000, -0.79791
-19.500000, 42.500000, -1.006071
-19.500000, 42.000000, -0.9924339
-19.500000, 41.500000, -0.9789214
-19.500000, 41.000000, -0.9655297
-19.500000, 40.500000, -0.9522544
-19.500000, 40.000000, -0.9390905
-19.500000, 39.500000, -0.9260344
-19.500000, 39.000000, -0.9130815
-19.500000, 38.500000, -0.9002288
-19.500000, 38.000000, -0.8874722
-19.500000, 37.500000, -0.874808
-19.500000, 37.000000, -0.8622323
-19.500000, 36.500000, -0.8497435
-19.500000, 36.000000, -0.8373371
-19.500000, 35.500000, -0.8250104
-19.500000, 35.000000, -0.8127618
-19.500000, 34.500000, -0.8005866
-19.500000, 34.000000, -0.788485
-19.500000, 33.500000, -0.7764522
-19.500000, 33.000000, -0.7644881
-19.500000, 32.500000, -0.7525886
-19.500000, 32.000000, -0.7407533
-19.500000, 31.500000, -0.7289795
-19.500000, 31.000000, -0.7172665
-19.500000, 30.500000, -0.7056113
-19.500000, 30.000000, -0.6940143
-19.500000, 29.500000, -0.6824731
-19.500000, 29.000000, -0.6709866
-19.500000, 28.500000, -0.6595535
-19.500000, 28.000000, -0.6481743
-19.500000, 27.500000, -0.6368467
-19.500000, 27.000000, -0.6255716
-19.500000, 26.500000, -0.614347
-19.500000, 26.000000, -0.6031737
-19.500000, 25.500000, -0.5920512
-19.500000, 25.000000, -0.5809792
-19.500000, 24.500000, -0.5699574
-19.500000, 24.000000, -0.5589877
-19.500000, 23.500000, -0.5480685
-19.500000, 23.000000, -0.537203
-19.500000, 22.500000, -0.5263887
-19.500000, 22.000000, -0.5156296
-19.500000, 21.500000, -0.5049251
-19.500000, 21.000000, -0.4942772
-19.500000, 20.500000, -0.4836865
-19.500000, 20.000000, -0.4731566
-19.500000, 19.500000, -0.462687
-19.500000, 19.000000, -0.4522813
-19.500000, 18.500000, -0.4419418
-19.500000, 18.000000, -0.4316711
-19.500000, 17.500000, -0.4214711
-19.500000, 17.000000, -0.4113462
-19.500000, 16.500000, -0.4012982
-19.500000, 16.000000, -0.3913323
-19.500000, 15.500000, -0.3814521
-19.500000, 15.000000, -0.3716606
-19.500000, 14.500000, -0.3619639
-19.500000, 14.000000, -0.3523649
-19.500000, 13.500000, -0.3428705
-19.500000, 13.000000, -0.3334852
-19.500000, 12.500000, -0.3242157
-19.500000, 12.000000, -0.3150671
-19.500000, 11.500000, -0.3060468
-19.500000, 11.000000, -0.2971617
-19.500000, 10.500000, -0.2884188
-19.500000, 10.000000, -0.2798256
-19.500000, 9.500000, -0.2713918
-19.500000, 9.000000, -0.2631246
-19.500000, 8.500000, -0.2550343
-19.500000, 8.000000, -0.2471297
-19.500000, 7.500000, -0.2394219
-19.500000, 7.000000, -0.2319202
-19.500000, 6.500000, -0.2246372
-19.500000, 6.000000, -0.217584
-19.500000, 5.500000, -0.2107729
-19.500000, 5.000000, -0.2042164
-19.500000, 4.500000, -0.1979274
-19.500000, 4.000000, -0.1919201
-19.500000, 3.500000, -0.186209
-19.500000, 3.000000, -0.180808
-19.500000, 2.500000, -0.175732
-19.500000, 2.000000, -0.1709975
-19.500000, 1.500000, -0.1666191
-19.500000, 1.000000, -0.1626129
-19.500000, 0.500000, -0.158994
-19.500000, 0.000000, -0.1557801
-19.500000, -0.500000, -0.152985
-19.500000, -1.000000, -0.1506259
-19.500000, -1.500000, -0.1487151
-19.500000, -2.000000, -0.1472675
-19.500000, -2.500000, -0.146296
-19.500000, -3.000000, -0.145809
-19.500000, -3.500000, -0.145815
-19.500000, -4.000000, -0.1463211
-19.500000, -4.500000, -0.1473274
-19.500000, -5.000000, -0.1488334
-19.500000, -5.500000, -0.1508339
-19.500000, -6.000000, -0.15332
-19.500000, -6.500000, -0.1562802
-19.500000, -7.000000, -0.1597002
-19.500000, -7.500000, -0.1635609
-19.500000, -8.000000, -0.1678447
-19.500000, -8.500000, -0.1725313
-19.500000, -9.000000, -0.1775986
-19.500000, -9.500000, -0.1830268
-19.500000, -10.000000, -0.1887956
-19.500000, -10.500000, -0.1948838
-19.500000, -11.000000, -0.2012707
-19.500000, -11.500000, -0.2079388
-19.500000, -12.000000, -0.2148681
-19.500000, -12.500000, -0.2220427
-19.500000, -13.000000, -0.2294462
-19.500000, -13.500000, -0.2370615
-19.500000, -14.000000, -0.2448739
-19.500000, -14.500000, -0.2528719
-19.500000, -15.000000, -0.2610406
-19.500000, -15.500000, -0.2693681
-19.500000, -16.000000, -0.2778443
-19.500000, -16.500000, -0.2864572
-19.500000, -17.000000, -0.2951982
-19.500000, -17.500000, -0.3040571
-19.500000, -18.000000, -0.3130271
-19.500000, -18.500000, -0.3220998
-19.500000, -19.000000, -0.3312673
-19.500000, -19.500000, -0.340523
-19.500000, -20.000000, -0.3498626
-19.500000, -20.500000, -0.3592785
-19.500000, -21.000000, -0.3687662
-19.500000, -21.500000, -0.3783211
-19.500000, -22.000000, -0.3879396
-19.500000, -22.500000, -0.3976167
-19.500000, -23.000000, -0.407349
-19.500000, -23.500000, -0.4171335
-19.500000, -24.000000, -0.4269687
-19.500000, -24.500000, -0.4368504
-19.500000, -25.000000, -0.4467772
-19.500000, -25.500000, -0.4567472
-19.500000, -26.000000, -0.4667577
-19.500000, -26.500000, -0.476808
-19.500000, -27.000000, -0.4868976
-19.500000, -27.500000, -0.4970247
-19.500000, -28.000000, -0.5071883
-19.500000, -28.500000, -0.5173885
-19.500000, -29.000000, -0.5276246
-19.500000, -29.500000, -0.5378971
-19.500000, -30.000000, -0.5482053
-19.500000, -30.500000, -0.5585493
-19.500000, -31.000000, -0.5689305
-19.500000, -31.500000, -0.5793485
-19.500000, -32.000000, -0.5898043
-19.500000, -32.500000, -0.6002996
-19.500000, -33.000000, -0.6108341
-19.500000, -33.500000, -0.6214092
-19.500000, -34.000000, -0.632027
-19.500000, -34.500000, -0.6426886
-19.500000, -35.000000, -0.6533948
-19.500000, -35.500000, -0.6641494
-19.500000, -36.000000, -0.6749521
-19.500000, -36.500000, -0.6858065
-19.500000, -37.000000, -0.6967143
-19.500000, -37.500000, -0.707678
-19.500000, -38.000000, -0.7187002
-19.500000, -38.500000, -0.7297828
-19.500000, -39.000000, -0.7409285
-19.500000, -39.500000, -0.7521414
-19.500000, -40.000000, -0.7634245
-19.500000, -40.500000, -0.7747794
-19.500000, -41.000000, -0.7862117
-19.500000, -41.500000, -0.7977244
-19.500000, -42.000000, -0.8093199
-19.500000, -42.500000, -0.821004
-20.000000, 42.500000, -1.030839
-20.000000, 42.000000, -1.0168417
-20.000000, 41.500000, -1.0029742
-20.000000, 41.000000, -0.9892346
-20.000000, 40.500000, -0.9756181
-20.000000, 40.000000, -0.9621205
-20.000000, 39.500000, -0.9487367
-20.000000, 39.000000, -0.9354621
-20.000000, 38.500000, -0.9222944
-20.000000, 38.000000, -0.9092283
-20.000000, 37.500000, -0.8962618
-20.000000, 37.000000, -0.8833898
-20.000000, 36.500000, -0.8706086
-20.000000, 36.000000, -0.8579173
-20.000000, 35.500000, -0.8453113
-20.000000, 35.000000, -0.8327885
-20.000000, 34.500000, -0.8203453
-20.000000, 34.000000, -0.8079806
-20.000000, 33.500000, -0.7956904
-20.000000, 33.000000, -0.7834736
-20.000000, 32.500000, -0.7713277
-20.000000, 32.000000, -0.7592514
-20.000000, 31.500000, -0.7472408
-20.000000, 31.000000, -0.735297
-20.000000, 30.500000, -0.7234167
-20.000000, 30.000000, -0.7115986
-20.000000, 29.500000, -0.6998419
-20.000000, 29.000000, -0.6881454
-20.000000, 28.500000, -0.6765077
-20.000000, 28.000000, -0.6649281
-20.000000, 27.500000, -0.6534055
-20.000000, 27.000000, -0.6419404
-20.000000, 26.500000, -0.6305318
-20.000000, 26.000000, -0.6191784
-20.000000, 25.500000, -0.6078806
-20.000000, 25.000000, -0.5966401
-20.000000, 24.500000, -0.5854543
-20.000000, 24.000000, -0.5743252
-20.000000, 23.500000, -0.5632532
-20.000000, 23.000000, -0.5522382
-20.000000, 22.500000, -0.5412807
-20.000000, 22.000000, -0.5303836
-20.000000, 21.500000, -0.5195463
-20.000000, 21.000000, -0.5087698
-20.000000, 20.500000, -0.4980574
-20.000000, 20.000000, -0.4874099
-20.000000, 19.500000, -0.4768296
-20.000000, 19.000000, -0.4663171
-20.000000, 18.500000, -0.4558776
-20.000000, 18.000000, -0.4455116
-20.000000, 17.500000, -0.435222
-20.000000, 17.000000, -0.4250122
-20.000000, 16.500000, -0.4148869
-20.000000, 16.000000, -0.4048473
-20.000000, 15.500000, -0.3948998
-20.000000, 15.000000, -0.3850465
-20.000000, 14.500000, -0.3752935
-20.000000, 14.000000, -0.3656445
-20.000000, 13.500000, -0.3561056
-20.000000, 13.000000, -0.346681
-20.000000, 12.500000, -0.3373775
-20.000000, 12.000000, -0.3282022
-20.000000, 11.500000, -0.3191594
-20.000000, 11.000000, -0.310258
-20.000000, 10.500000, -0.3015039
-20.000000, 10.000000, -0.2929057
-20.000000, 9.500000, -0.284472
-20.000000, 9.000000, -0.276211
-20.000000, 8.500000, -0.268131
-20.000000, 8.000000, -0.2602427
-20.000000, 7.500000, -0.2525561
-20.000000, 7.000000, -0.2450807
-20.000000, 6.500000, -0.2378291
-20.000000, 6.000000, -0.2308111
-20.000000, 5.500000, -0.2240392
-20.000000, 5.000000, -0.2175258
-20.000000, 4.500000, -0.2112849
-20.000000, 4.000000, -0.2053286
-20.000000, 3.500000, -0.1996705
-20.000000, 3.000000, -0.1943252
-20.000000, 2.500000, -0.1893079
-20.000000, 2.000000, -0.184633
-20.000000, 1.500000, -0.1803151
-20.000000, 1.000000, -0.1763692
-20.000000, 0.500000, -0.1728115
-20.000000, 0.000000, -0.1696557
-20.000000, -0.500000, -0.1669185
-20.000000, -1.000000, -0.1646122
-20.000000, -1.500000, -0.1627511
-20.000000, -2.000000, -0.161348
-20.000000, -2.500000, -0.1604129
-20.000000, -3.000000, -0.1599562
-20.000000, -3.500000, -0.1599845
-20.000000, -4.000000, -0.1605026
-20.000000, -4.500000, -0.1615109
-20.000000, -5.000000, -0.1630098
-20.000000, -5.500000, -0.1649932
-20.000000, -6.000000, -0.1674521
-20.000000, -6.500000, -0.1703781
-20.000000, -7.000000, -0.1737547
-20.000000, -7.500000, -0.1775681
-20.000000, -8.000000, -0.1817997
-20.000000, -8.500000, -0.186431
-20.000000, -9.000000, -0.191443
-20.000000, -9.500000, -0.196816
-20.000000, -10.000000, -0.2025297
-20.000000, -10.500000, -0.2085639
-20.000000, -11.000000, -0.214902
-20.000000, -11.500000, -0.2215244
-20.000000, -12.000000, -0.2284132
-20.000000, -12.500000, -0.2355515
-20.000000, -13.000000, -0.242924
-20.000000, -13.500000, -0.2505146
-20.000000, -14.000000, -0.2583095
-20.000000, -14.500000, -0.2662955
-20.000000, -15.000000, -0.2744595
-20.000000, -15.500000, -0.2827898
-20.000000, -16.000000, -0.2912743
-20.000000, -16.500000, -0.2999039
-20.000000, -17.000000, -0.3086682
-20.000000, -17.500000, -0.317559
-20.000000, -18.000000, -0.3265666
-20.000000, -18.500000, -0.3356836
-20.000000, -19.000000, -0.3449041
-20.000000, -19.500000, -0.3542206
-20.000000, -20.000000, -0.3636259
-20.000000, -20.500000, -0.3731164
-20.000000, -21.000000, -0.3826848
-20.000000, -21.500000, -0.3923283
-20.000000, -22.000000, -0.4020406
-20.000000, -22.500000, -0.4118197
-20.000000, -23.000000, -0.4216612
-20.000000, -23.500000, -0.4315622
-20.000000, -24.000000, -0.4415182
-20.000000, -24.500000, -0.4515283
-20.000000, -25.000000, -0.4615901
-20.000000, -25.500000, -0.4717016
-20.000000, -26.000000, -0.4818604
-20.000000, -26.500000, -0.4920648
-20.000000, -27.000000, -0.5023144
-20.000000, -27.500000, -0.5126085
-20.000000, -28.000000, -0.5229451
-20.000000, -28.500000, -0.5333237
-20.000000, -29.000000, -0.5437454
-20.000000, -29.500000, -0.5542089
-20.000000, -30.000000, -0.5647136
-20.000000, -30.500000, -0.5752617
-20.000000, -31.000000, -0.585851
-20.000000, -31.500000, -0.5964848
-20.000000, -32.000000, -0.6071614
-20.000000, -32.500000, -0.6178827
-20.000000, -33.000000, -0.6286496
-20.000000, -33.500000, -0.6394644
-20.000000, -34.000000, -0.6503266
-20.000000, -34.500000, -0.6612383
-20.000000, -35.000000, -0.6722015
-20.000000, -35.500000, -0.6832183
-20.000000, -36.000000, -0.6942903
-20.000000, -36.500000, -0.7054186
-20.000000, -37.000000, -0.7166078
-20.000000, -37.500000, -0.7278578
-20.000000, -38.000000, -0.7391723
-20.000000, -38.500000, -0.7505544
-20.000000, -39.000000, -0.7620061
-20.000000, -39.500000, -0.7735317
-20.000000, -40.000000, -0.7851335
-20.000000, -40.500000, -0.7968141
-20.000000, -41.000000, -0.8085786
-20.000000, -41.500000, -0.8204302
-20.000000, -42.000000, -0.8323717
-20.000000, -42.500000, -0.844409
-20.500000, 42.500000, -1.0559436
-20.500000, 42.000000, -1.0415829
-20.500000, 41.500000, -1.0273587
-20.500000, 41.000000, -1.0132697
-20.500000, 40.500000, -0.9993108
-20.500000, 40.000000, -0.9854776
-20.500000, 39.500000, -0.9717647
-20.500000, 39.000000, -0.9581673
-20.500000, 38.500000, -0.9446837
-20.500000, 38.000000, -0.9313075
-20.500000, 37.500000, -0.9180363
-20.500000, 37.000000, -0.9048671
-20.500000, 36.500000, -0.8917948
-20.500000, 36.000000, -0.8788173
-20.500000, 35.500000, -0.8659307
-20.500000, 35.000000, -0.8531339
-20.500000, 34.500000, -0.840422
-20.500000, 34.000000, -0.8277938
-20.500000, 33.500000, -0.8152472
-20.500000, 33.000000, -0.8027786
-20.500000, 32.500000, -0.7903858
-20.500000, 32.000000, -0.778068
-20.500000, 31.500000, -0.7658223
-20.500000, 31.000000, -0.7536477
-20.500000, 30.500000, -0.7415427
-20.500000, 30.000000, -0.7295049
-20.500000, 29.500000, -0.7175342
-20.500000, 29.000000, -0.7056276
-20.500000, 28.500000, -0.6937863
-20.500000, 28.000000, -0.6820077
-20.500000, 27.500000, -0.6702914
-20.500000, 27.000000, -0.6586379
-20.500000, 26.500000, -0.647046
-20.500000, 26.000000, -0.6355146
-20.500000, 25.500000, -0.6240446
-20.500000, 25.000000, -0.6126359
-20.500000, 24.500000, -0.6012877
-20.500000, 24.000000, -0.5900008
-20.500000, 23.500000, -0.5787767
-20.500000, 23.000000, -0.5676152
-20.500000, 22.500000, -0.5565166
-20.500000, 22.000000, -0.5454829
-20.500000, 21.500000, -0.5345154
-20.500000, 21.000000, -0.5236138
-20.500000, 20.500000, -0.5127816
-20.500000, 20.000000, -0.5020194
-20.500000, 19.500000, -0.4913295
-20.500000, 19.000000, -0.4807144
-20.500000, 18.500000, -0.4701752
-20.500000, 18.000000, -0.4597164
-20.500000, 17.500000, -0.4493399
-20.500000, 17.000000, -0.4390499
-20.500000, 16.500000, -0.4288473
-20.500000, 16.000000, -0.418738
-20.500000, 15.500000, -0.4087255
-20.500000, 15.000000, -0.3988137
-20.500000, 14.500000, -0.3890079
-20.500000, 14.000000, -0.3793106
-20.500000, 13.500000, -0.3697298
-20.500000, 13.000000, -0.3602698
-20.500000, 12.500000, -0.3509363
-20.500000, 12.000000, -0.3417354
-20.500000, 11.500000, -0.3326734
-20.500000, 11.000000, -0.3237579
-20.500000, 10.500000, -0.3149962
-20.500000, 10.000000, -0.3063956
-20.500000, 9.500000, -0.2979647
-20.500000, 9.000000, -0.2897117
-20.500000, 8.500000, -0.2816459
-20.500000, 8.000000, -0.273777
-20.500000, 7.500000, -0.266113
-20.500000, 7.000000, -0.2586672
-20.500000, 6.500000, -0.2514473
-20.500000, 6.000000, -0.2444671
-20.500000, 5.500000, -0.2377371
-20.500000, 5.000000, -0.2312697
-20.500000, 4.500000, -0.2250778
-20.500000, 4.000000, -0.2191735
-20.500000, 3.500000, -0.2135704
-20.500000, 3.000000, -0.2082832
-20.500000, 2.500000, -0.203325
-20.500000, 2.000000, -0.1987101
-20.500000, 1.500000, -0.1944532
-20.500000, 1.000000, -0.1905684
-20.500000, 0.500000, -0.1870707
-20.500000, 0.000000, -0.1839739
-20.500000, -0.500000, -0.1812927
-20.500000, -1.000000, -0.1790394
-20.500000, -1.500000, -0.1772262
-20.500000, -2.000000, -0.1758661
-20.500000, -2.500000, -0.174967
-20.500000, -3.000000, -0.1745392
-20.500000, -3.500000, -0.1745874
-20.500000, -4.000000, -0.1751165
-20.500000, -4.500000, -0.1761268
-20.500000, -5.000000, -0.1776167
-20.500000, -5.500000, -0.1795821
-20.500000, -6.000000, -0.1820151
-20.500000, -6.500000, -0.1849063
-20.500000, -7.000000, -0.1882412
-20.500000, -7.500000, -0.192008
-20.500000, -8.000000, -0.196188
-20.500000, -8.500000, -0.2007649
-20.500000, -9.000000, -0.2057207
-20.500000, -9.500000, -0.2110377
-20.500000, -10.000000, -0.2166956
-20.500000, -10.500000, -0.2226772
-20.500000, -11.000000, -0.2289649
-20.500000, -11.500000, -0.2355404
-20.500000, -12.000000, -0.2423864
-20.500000, -12.500000, -0.2494863
-20.500000, -13.000000, -0.2568268
-20.500000, -13.500000, -0.2643908
-20.500000, -14.000000, -0.2721656
-20.500000, -14.500000, -0.2801369
-20.500000, -15.000000, -0.2882927
-20.500000, -15.500000, -0.2966225
-20.500000, -16.000000, -0.305114
-20.500000, -16.500000, -0.3137563
-20.500000, -17.000000, -0.3225409
-20.500000, -17.500000, -0.3314589
-20.500000, -18.000000, -0.3405024
-20.500000, -18.500000, -0.3496612
-20.500000, -19.000000, -0.3589314
-20.500000, -19.500000, -0.3683035
-20.500000, -20.000000, -0.3777734
-20.500000, -20.500000, -0.3873336
-20.500000, -21.000000, -0.3969808
-20.500000, -21.500000, -0.4067084
-20.500000, -22.000000, -0.4165129
-20.500000, -22.500000, -0.4263906
-20.500000, -23.000000, -0.4363382
-20.500000, -23.500000, -0.4463507
-20.500000, -24.000000, -0.4564258
-20.500000, -24.500000, -0.4665627
-20.500000, -25.000000, -0.4767559
-20.500000, -25.500000, -0.4870056
-20.500000, -26.000000, -0.4973096
-20.500000, -26.500000, -0.507666
-20.500000, -27.000000, -0.5180739
-20.500000, -27.500000, -0.5285324
-20.500000, -28.000000, -0.5390387
-20.500000, -28.500000, -0.5495953
-20.500000, -29.000000, -0.5601996
-20.500000, -29.500000, -0.5708512
-20.500000, -30.000000, -0.5815519
-20.500000, -30.500000, -0.5923007
-20.500000, -31.000000, -0.6030977
-20.500000, -31.500000, -0.6139443
-20.500000, -32.000000, -0.624841
-20.500000, -32.500000, -0.6357878
-20.500000, -33.000000, -0.6467866
-20.500000, -33.500000, -0.6578382
-20.500000, -34.000000, -0.6689438
-20.500000, -34.500000, -0.680105
-20.500000, -35.000000, -0.6913249
-20.500000, -35.500000, -0.7026027
-20.500000, -36.000000, -0.7139423
-20.500000, -36.500000, -0.7253458
-20.500000, -37.000000, -0.7368151
-20.500000, -37.500000, -0.7483523
-20.500000, -38.000000, -0.7599605
-20.500000, -38.500000, -0.7716417
-20.500000, -39.000000, -0.7834003
-20.500000, -39.500000, -0.7952377
-20.500000, -40.000000, -0.8071586
-20.500000, -40.500000, -0.8191658
-20.500000, -41.000000, -0.8312637
-20.500000, -41.500000, -0.8434547
-20.500000, -42.000000, -0.8557449
-20.500000, -42.500000, -0.8681366
-21.000000, 42.500000, -1.0813934
-21.000000, 42.000000, -1.0666679
-21.000000, 41.500000, -1.0520859
-21.000000, 41.000000, -1.0376448
-21.000000, 40.500000, -1.0233422
-21.000000, 40.000000, -1.0091703
-21.000000, 39.500000, -0.9951266
-21.000000, 39.000000, -0.981206
-21.000000, 38.500000, -0.9674045
-21.000000, 38.000000, -0.9537174
-21.000000, 37.500000, -0.9401423
-21.000000, 37.000000, -0.9266737
-21.000000, 36.500000, -0.9133093
-21.000000, 36.000000, -0.900045
-21.000000, 35.500000, -0.8868786
-21.000000, 35.000000, -0.8738068
-21.000000, 34.500000, -0.8608264
-21.000000, 34.000000, -0.8479352
-21.000000, 33.500000, -0.8351307
-21.000000, 33.000000, -0.8224105
-21.000000, 32.500000, -0.8097719
-21.000000, 32.000000, -0.7972131
-21.000000, 31.500000, -0.784732
-21.000000, 31.000000, -0.7723274
-21.000000, 30.500000, -0.7599978
-21.000000, 30.000000, -0.7477415
-21.000000, 29.500000, -0.7355565
-21.000000, 29.000000, -0.7234424
-21.000000, 28.500000, -0.7113975
-21.000000, 28.000000, -0.6994209
-21.000000, 27.500000, -0.6875123
-21.000000, 27.000000, -0.6756719
-21.000000, 26.500000, -0.6638975
-21.000000, 26.000000, -0.6521898
-21.000000, 25.500000, -0.6405478
-21.000000, 25.000000, -0.628973
-21.000000, 24.500000, -0.6174638
-21.000000, 24.000000, -0.6060228
-21.000000, 23.500000, -0.5946484
-21.000000, 23.000000, -0.5833413
-21.000000, 22.500000, -0.5721038
-21.000000, 22.000000, -0.5609356
-21.000000, 21.500000, -0.5498392
-21.000000, 21.000000, -0.5388152
-21.000000, 20.500000, -0.5278648
-21.000000, 20.000000, -0.5169898
-21.000000, 19.500000, -0.5061932
-21.000000, 19.000000, -0.4954767
-21.000000, 18.500000, -0.4848422
-21.000000, 18.000000, -0.4742931
-21.000000, 17.500000, -0.4638322
-21.000000, 17.000000, -0.4534619
-21.000000, 16.500000, -0.4431867
-21.000000, 16.000000, -0.4330098
-21.000000, 15.500000, -0.4229354
-21.000000, 15.000000, -0.4129665
-21.000000, 14.500000, -0.4031093
-21.000000, 14.000000, -0.3933682
-21.000000, 13.500000, -0.3837482
-21.000000, 13.000000, -0.3742536
-21.000000, 12.500000, -0.3648921
-21.000000, 12.000000, -0.3556686
-21.000000, 11.500000, -0.3465905
-21.000000, 11.000000, -0.3376645
-21.000000, 10.500000, -0.3288976
-21.000000, 10.000000, -0.3202971
-21.000000, 9.500000, -0.3118707
-21.000000, 9.000000, -0.3036286
-21.000000, 8.500000, -0.2955789
-21.000000, 8.000000, -0.2877294
-21.000000, 7.500000, -0.2800921
-21.000000, 7.000000, -0.2726763
-21.000000, 6.500000, -0.2654925
-21.000000, 6.000000, -0.2585508
-21.000000, 5.500000, -0.2518643
-21.000000, 5.000000, -0.2454436
-21.000000, 4.500000, -0.2393016
-21.000000, 4.000000, -0.2334504
-21.000000, 3.500000, -0.2279034
-21.000000, 3.000000, -0.2226745
-21.000000, 2.500000, -0.2177757
-21.000000, 2.000000, -0.2132214
-21.000000, 1.500000, -0.2090252
-21.000000, 1.000000, -0.2052021
-21.000000, 0.500000, -0.2017633
-21.000000, 0.000000, -0.1987254
-21.000000, -0.500000, -0.1960983
-21.000000, -1.000000, -0.1938961
-21.000000, -1.500000, -0.1921302
-21.000000, -2.000000, -0.1908104
-21.000000, -2.500000, -0.1899467
-21.000000, -3.000000, -0.1895455
-21.000000, -3.500000, -0.1896124
-21.000000, -4.000000, -0.1901514
-21.000000, -4.500000, -0.1911626
-21.000000, -5.000000, -0.1926436
-21.000000, -5.500000, -0.1945913
-21.000000, -6.000000, -0.1969988
-21.000000, -6.500000, -0.1998555
-21.000000, -7.000000, -0.2031503
-21.000000, -7.500000, -0.2068701
-21.000000, -8.000000, -0.2109994
-21.000000, -8.500000, -0.2155239
-21.000000, -9.000000, -0.2204246
-21.000000, -9.500000, -0.2256857
-21.000000, -10.000000, -0.2312891
-21.000000, -10.500000, -0.2372176
-21.000000, -11.000000, -0.2434535
-21.000000, -11.500000, -0.2499815
-21.000000, -12.000000, -0.2567836
-21.000000, -12.500000, -0.2638461
-21.000000, -13.000000, -0.2711516
-21.000000, -13.500000, -0.2786872
-21.000000, -14.000000, -0.2864392
-21.000000, -14.500000, -0.2943953
-21.000000, -15.000000, -0.3025415
-21.000000, -15.500000, -0.3108674
-21.000000, -16.000000, -0.3193628
-21.000000, -16.500000, -0.3280167
-21.000000, -17.000000, -0.3368189
-21.000000, -17.500000, -0.3457622
-21.000000, -18.000000, -0.3548371
-21.000000, -18.500000, -0.3640352
-21.000000, -19.000000, -0.3733517
-21.000000, -19.500000, -0.3827772
-21.000000, -20.000000, -0.3923078
-21.000000, -20.500000, -0.4019358
-21.000000, -21.000000, -0.4116582
-21.000000, -21.500000, -0.4214672
-21.000000, -22.000000, -0.4313616
-21.000000, -22.500000, -0.4413348
-21.000000, -23.000000, -0.4513843
-21.000000, -23.500000, -0.4615064
-21.000000, -24.000000, -0.4716988
-21.000000, -24.500000, -0.4819578
-21.000000, -25.000000, -0.492281
-21.000000, -25.500000, -0.5026678
-21.000000, -26.000000, -0.5131138
-21.000000, -26.500000, -0.5236195
-21.000000, -27.000000, -0.5341829
-21.000000, -27.500000, -0.5448033
-21.000000, -28.000000, -0.5554789
-21.000000, -28.500000, -0.5662095
-21.000000, -29.000000, -0.5769944
-21.000000, -29.500000, -0.5878335
-21.000000, -30.000000, -0.5987275
-21.000000, -30.500000, -0.6096758
-21.000000, -31.000000, -0.6206784
-21.000000, -31.500000, -0.631737
-21.000000, -32.000000, -0.6428511
-21.000000, -32.500000, -0.6540219
-21.000000, -33.000000, -0.6652515
-21.000000, -33.500000, -0.6765397
-21.000000, -34.000000, -0.6878882
-21.000000, -34.500000, -0.6992984
-21.000000, -35.000000, -0.7107728
-21.000000, -35.500000, -0.7223126
-21.000000, -36.000000, -0.73392
-21.000000, -36.500000, -0.7455973
-21.000000, -37.000000, -0.7573467
-21.000000, -37.500000, -0.7691703
-21.000000, -38.000000, -0.7810714
-21.000000, -38.500000, -0.7930535
-21.000000, -39.000000, -0.805118
-21.000000, -39.500000, -0.8172696
-21.000000, -40.000000, -0.8295103
-21.000000, -40.500000, -0.8418452
-21.000000, -41.000000, -0.8542768
-21.000000, -41.500000, -0.8668089
-21.000000, -42.000000, -0.8794469
-21.000000, -42.500000, -0.8921954
-21.500000, 42.500000, -1.1072007
-21.500000, 42.000000, -1.0921067
-21.500000, 41.500000, -1.0771635
-21.500000, 41.000000, -1.0623693
-21.500000, 40.500000, -1.0477204
-21.500000, 40.000000, -1.0332096
-21.500000, 39.500000, -1.0188343
-21.500000, 39.000000, -1.0045879
-21.500000, 38.500000, -0.9904672
-21.500000, 38.000000, -0.9764684
-21.500000, 37.500000, -0.9625867
-21.500000, 37.000000, -0.9488194
-21.500000, 36.500000, -0.935161
-21.500000, 36.000000, -0.9216101
-21.500000, 35.500000, -0.9081634
-21.500000, 35.000000, -0.8948163
-21.500000, 34.500000, -0.8815666
-21.500000, 34.000000, -0.8684127
-21.500000, 33.500000, -0.85535
-21.500000, 33.000000, -0.8423779
-21.500000, 32.500000, -0.8294926
-21.500000, 32.000000, -0.816694
-21.500000, 31.500000, -0.803978
-21.500000, 31.000000, -0.7913442
-21.500000, 30.500000, -0.778791
-21.500000, 30.000000, -0.7663155
-21.500000, 29.500000, -0.7539174
-21.500000, 29.000000, -0.7415955
-21.500000, 28.500000, -0.7293488
-21.500000, 28.000000, -0.7171753
-21.500000, 27.500000, -0.7050756
-21.500000, 27.000000, -0.6930487
-21.500000, 26.500000, -0.6810934
-21.500000, 26.000000, -0.6692103
-21.500000, 25.500000, -0.6573991
-21.500000, 25.000000, -0.6456595
-21.500000, 24.500000, -0.6339916
-21.500000, 24.000000, -0.622396
-21.500000, 23.500000, -0.6108729
-21.500000, 23.000000, -0.599423
-21.500000, 22.500000, -0.5880475
-21.500000, 22.000000, -0.5767482
-21.500000, 21.500000, -0.5655242
-21.500000, 21.000000, -0.5543782
-21.500000, 20.500000, -0.5433124
-21.500000, 20.000000, -0.5323273
-21.500000, 19.500000, -0.5214261
-21.500000, 19.000000, -0.5106102
-21.500000, 18.500000, -0.4998826
-21.500000, 18.000000, -0.4892446
-21.500000, 17.500000, -0.4787019
-21.500000, 17.000000, -0.4682549
-21.500000, 16.500000, -0.4579081
-21.500000, 16.000000, -0.4476664
-21.500000, 15.500000, -0.4375313
-21.500000, 15.000000, -0.4275095
-21.500000, 14.500000, -0.4176032
-21.500000, 14.000000, -0.4078198
-21.500000, 13.500000, -0.3981623
-21.500000, 13.000000, -0.388637
-21.500000, 12.500000, -0.3792493
-21.500000, 12.000000, -0.3700063
-21.500000, 11.500000, -0.3609133
-21.500000, 11.000000, -0.351979
-21.500000, 10.500000, -0.3432082
-21.500000, 10.000000, -0.3346095
-21.500000, 9.500000, -0.3261914
-21.500000, 9.000000, -0.3179608
-21.500000, 8.500000, -0.3099283
-21.500000, 8.000000, -0.3021023
-21.500000, 7.500000, -0.2944918
-21.500000, 7.000000, -0.2871082
-21.500000, 6.500000, -0.27996
-21.500000, 6.000000, -0.2730592
-21.500000, 5.500000, -0.2664169
-21.500000, 5.000000, -0.2600447
-21.500000, 4.500000, -0.2539535
-21.500000, 4.000000, -0.2481563
-21.500000, 3.500000, -0.2426656
-21.500000, 3.000000, -0.2374943
-21.500000, 2.500000, -0.2326553
-21.500000, 2.000000, -0.228161
-21.500000, 1.500000, -0.224026
-21.500000, 1.000000, -0.2202623
-21.500000, 0.500000, -0.2168823
-21.500000, 0.000000, -0.2139003
-21.500000, -0.500000, -0.2113273
-21.500000, -1.000000, -0.2091743
-21.500000, -1.500000, -0.207453
-21.500000, -2.000000, -0.206173
-21.500000, -2.500000, -0.2053413
-21.500000, -3.000000, -0.2049653
-21.500000, -3.500000, -0.2050496
-21.500000, -4.000000, -0.2055973
-21.500000, -4.500000, -0.2066085
-21.500000, -5.000000, -0.2080817
-21.500000, -5.500000, -0.2100119
-21.500000, -6.000000, -0.2123932
-21.500000, -6.500000, -0.215217
-21.500000, -7.000000, -0.2184732
-21.500000, -7.500000, -0.2221478
-21.500000, -8.000000, -0.2262293
-21.500000, -8.500000, -0.2307013
-21.500000, -9.000000, -0.2355478
-21.500000, -9.500000, -0.2407544
-21.500000, -10.000000, -0.2463035
-21.500000, -10.500000, -0.2521792
-21.500000, -11.000000, -0.258365
-21.500000, -11.500000, -0.2648453
-21.500000, -12.000000, -0.2716043
-21.500000, -12.500000, -0.2786263
-21.500000, -13.000000, -0.285898
-21.500000, -13.500000, -0.2934043
-21.500000, -14.000000, -0.3011328
-21.500000, -14.500000, -0.3090702
-21.500000, -15.000000, -0.3172055
-21.500000, -15.500000, -0.3255263
-21.500000, -16.000000, -0.3340234
-21.500000, -16.500000, -0.3426861
-21.500000, -17.000000, -0.3515039
-21.500000, -17.500000, -0.3604689
-21.500000, -18.000000, -0.3695736
-21.500000, -18.500000, -0.3788096
-21.500000, -19.000000, -0.3881692
-21.500000, -19.500000, -0.3976461
-21.500000, -20.000000, -0.4072343
-21.500000, -20.500000, -0.4169274
-21.500000, -21.000000, -0.4267212
-21.500000, -21.500000, -0.4366112
-21.500000, -22.000000, -0.4465912
-21.500000, -22.500000, -0.4566575
-21.500000, -23.000000, -0.466807
-21.500000, -23.500000, -0.4770369
-21.500000, -24.000000, -0.487342
-21.500000, -24.500000, -0.4977216
-21.500000, -25.000000, -0.5081725
-21.500000, -25.500000, -0.5186921
-21.500000, -26.000000, -0.5292793
-21.500000, -26.500000, -0.5399324
-21.500000, -27.000000, -0.5506487
-21.500000, -27.500000, -0.5614286
-21.500000, -28.000000, -0.5722703
-21.500000, -28.500000, -0.5831738
-21.500000, -29.000000, -0.5941385
-21.500000, -29.500000, -0.6051634
-21.500000, -30.000000, -0.6162485
-21.500000, -30.500000, -0.627395
-21.500000, -31.000000, -0.6386022
-21.500000, -31.500000, -0.649871
-21.500000, -32.000000, -0.661202
-21.500000, -32.500000, -0.6725956
-21.500000, -33.000000, -0.6840539
-21.500000, -33.500000, -0.695578
-21.500000, -34.000000, -0.7071687
-21.500000, -34.500000, -0.7188276
-21.500000, -35.000000, -0.7305563
-21.500000, -35.500000, -0.7423564
-21.500000, -36.000000, -0.7542311
-21.500000, -36.500000, -0.766182
-21.500000, -37.000000, -0.7782114
-21.500000, -37.500000, -0.7903227
-21.500000, -38.000000, -0.8025174
-21.500000, -38.500000, -0.8147992
-21.500000, -39.000000, -0.8271709
-21.500000, -39.500000, -0.8396363
-21.500000, -40.000000, -0.8521986
-21.500000, -40.500000, -0.8648614
-21.500000, -41.000000, -0.8776283
-21.500000, -41.500000, -0.8905035
-21.500000, -42.000000, -0.9034917
-21.500000, -42.500000, -0.9165967
-22.000000, 42.500000, -1.1333742
-22.000000, 42.000000, -1.1179098
-22.000000, 41.500000, -1.102603
-22.000000, 41.000000, -1.0874535
-22.000000, 40.500000, -1.0724564
-22.000000, 40.000000, -1.0576054
-22.000000, 39.500000, -1.0428952
-22.000000, 39.000000, -1.0283223
-22.000000, 38.500000, -1.0138821
-22.000000, 38.000000, -0.9995694
-22.000000, 37.500000, -0.9853812
-22.000000, 37.000000, -0.9713127
-22.000000, 36.500000, -0.9573611
-22.000000, 36.000000, -0.9435218
-22.000000, 35.500000, -0.9297931
-22.000000, 35.000000, -0.9161704
-22.000000, 34.500000, -0.9026522
-22.000000, 34.000000, -0.8892338
-22.000000, 33.500000, -0.8759143
-22.000000, 33.000000, -0.86269
-22.000000, 32.500000, -0.8495589
-22.000000, 32.000000, -0.8365197
-22.000000, 31.500000, -0.8235693
-22.000000, 31.000000, -0.8107059
-22.000000, 30.500000, -0.7979289
-22.000000, 30.000000, -0.7852362
-22.000000, 29.500000, -0.7726255
-22.000000, 29.000000, -0.7600962
-22.000000, 28.500000, -0.7476485
-22.000000, 28.000000, -0.735279
-22.000000, 27.500000, -0.7229892
-22.000000, 27.000000, -0.7107771
-22.000000, 26.500000, -0.6986424
-22.000000, 26.000000, -0.6865855
-22.000000, 25.500000, -0.6746051
-22.000000, 25.000000, -0.6627017
-22.000000, 24.500000, -0.6508763
-22.000000, 24.000000, -0.6391285
-22.000000, 23.500000, -0.6274584
-22.000000, 23.000000, -0.6158675
-22.000000, 22.500000, -0.604356
-22.000000, 22.000000, -0.5929255
-22.000000, 21.500000, -0.5815772
-22.000000, 21.000000, -0.5703116
-22.000000, 20.500000, -0.5591319
-22.000000, 20.000000, -0.5480386
-22.000000, 19.500000, -0.5370336
-22.000000, 19.000000, -0.5261204
-22.000000, 18.500000, -0.5153008
-22.000000, 18.000000, -0.5045782
-22.000000, 17.500000, -0.4939544
-22.000000, 17.000000, -0.4834333
-22.000000, 16.500000, -0.4730175
-22.000000, 16.000000, -0.4627121
-22.000000, 15.500000, -0.4525193
-22.000000, 15.000000, -0.4424458
-22.000000, 14.500000, -0.4324937
-22.000000, 14.000000, -0.4226686
-22.000000, 13.500000, -0.4129762
-22.000000, 13.000000, -0.4034217
-22.000000, 12.500000, -0.3940108
-22.000000, 12.000000, -0.3847493
-22.000000, 11.500000, -0.3756446
-22.000000, 11.000000, -0.3667022
-22.000000, 10.500000, -0.35793
-22.000000, 10.000000, -0.3493355
-22.000000, 9.500000, -0.3409262
-22.000000, 9.000000, -0.3327101
-22.000000, 8.500000, -0.3246965
-22.000000, 8.000000, -0.316894
-22.000000, 7.500000, -0.3093126
-22.000000, 7.000000, -0.3019615
-22.000000, 6.500000, -0.2948513
-22.000000, 6.000000, -0.2879908
-22.000000, 5.500000, -0.2813934
-22.000000, 5.000000, -0.2750694
-22.000000, 4.500000, -0.2690298
-22.000000, 4.000000, -0.2632867
-22.000000, 3.500000, -0.2578515
-22.000000, 3.000000, -0.2527379
-22.000000, 2.500000, -0.247958
-22.000000, 2.000000, -0.2435232
-22.000000, 1.500000, -0.2394481
-22.000000, 1.000000, -0.2357426
-22.000000, 0.500000, -0.23242
-22.000000, 0.000000, -0.2294918
-22.000000, -0.500000, -0.226971
-22.000000, -1.000000, -0.2248656
-22.000000, -1.500000, -0.2231881
-22.000000, -2.000000, -0.2219442
-22.000000, -2.500000, -0.221144
-22.000000, -3.000000, -0.2207919
-22.000000, -3.500000, -0.2208925
-22.000000, -4.000000, -0.2214477
-22.000000, -4.500000, -0.2224578
-22.000000, -5.000000, -0.2239224
-22.000000, -5.500000, -0.2258354
-22.000000, -6.000000, -0.2281928
-22.000000, -6.500000, -0.2309853
-22.000000, -7.000000, -0.2342025
-22.000000, -7.500000, -0.2378346
-22.000000, -8.000000, -0.241869
-22.000000, -8.500000, -0.2462905
-22.000000, -9.000000, -0.2510861
-22.000000, -9.500000, -0.2562392
-22.000000, -10.000000, -0.2617355
-22.000000, -10.500000, -0.26756
-22.000000, -11.000000, -0.2736962
-22.000000, -11.500000, -0.2801286
-22.000000, -12.000000, -0.2868443
-22.000000, -12.500000, -0.2938268
-22.000000, -13.000000, -0.3010627
-22.000000, -13.500000, -0.3085392
-22.000000, -14.000000, -0.3162436
-22.000000, -14.500000, -0.3241627
-22.000000, -15.000000, -0.3322848
-22.000000, -15.500000, -0.3406003
-22.000000, -16.000000, -0.3490971
-22.000000, -16.500000, -0.3577665
-22.000000, -17.000000, -0.3665983
-22.000000, -17.500000, -0.3755844
-22.000000, -18.000000, -0.3847162
-22.000000, -18.500000, -0.3939858
-22.000000, -19.000000, -0.4033874
-22.000000, -19.500000, -0.4129136
-22.000000, -20.000000, -0.4225576
-22.000000, -20.500000, -0.4323139
-22.000000, -21.000000, -0.4421776
-22.000000, -21.500000, -0.4521432
-22.000000, -22.000000, -0.4622075
-22.000000, -22.500000, -0.472365
-22.000000, -23.000000, -0.4826125
-22.000000, -23.500000, -0.4929464
-22.000000, -24.000000, -0.5033635
-22.000000, -24.500000, -0.5138613
-22.000000, -25.000000, -0.5244367
-22.000000, -25.500000, -0.5350881
-22.000000, -26.000000, -0.5458135
-22.000000, -26.500000, -0.5566104
-22.000000, -27.000000, -0.5674791
-22.000000, -27.500000, -0.5784172
-22.000000, -28.000000, -0.589423
-22.000000, -28.500000, -0.6004975
-22.000000, -29.000000, -0.6116392
-22.000000, -29.500000, -0.6228475
-22.000000, -30.000000, -0.6341232
-22.000000, -30.500000, -0.6454669
-22.000000, -31.000000, -0.6568769
-22.000000, -31.500000, -0.6683543
-22.000000, -32.000000, -0.6799017
-22.000000, -32.500000, -0.6915179
-22.000000, -33.000000, -0.703204
-22.000000, -33.500000, -0.7149623
-22.000000, -34.000000, -0.7267938
-22.000000, -34.500000, -0.7387002
-22.000000, -35.000000, -0.7506834
-22.000000, -35.500000, -0.7627441
-22.000000, -36.000000, -0.7748868
-22.000000, -36.500000, -0.7871111
-22.000000, -37.000000, -0.7994207
-22.000000, -37.500000, -0.8118192
-22.000000, -38.000000, -0.8243074
-22.000000, -38.500000, -0.8368901
-22.000000, -39.000000, -0.8495693
-22.000000, -39.500000, -0.8623492
-22.000000, -40.000000, -0.8752334
-22.000000, -40.500000, -0.8882244
-22.000000, -41.000000, -0.9013285
-22.000000, -41.500000, -0.914547
-22.000000, -42.000000, -0.9278868
-22.000000, -42.500000, -0.9413522
-22.500000, 42.500000, -1.1599247
-22.500000, 42.000000, -1.1440865
-22.500000, 41.500000, -1.1284152
-22.500000, 41.000000, -1.1129081
-22.500000, 40.500000, -1.0975609
-22.500000, 40.000000, -1.0823668
-22.500000, 39.500000, -1.0673206
-22.500000, 39.000000, -1.0524191
-22.500000, 38.500000, -1.0376577
-22.500000, 38.000000, -1.0230298
-22.500000, 37.500000, -1.0085332
-22.500000, 37.000000, -0.9941638
-22.500000, 36.500000, -0.9799166
-22.500000, 36.000000, -0.9657897
-22.500000, 35.500000, -0.9517783
-22.500000, 35.000000, -0.9378795
-22.500000, 34.500000, -0.9240906
-22.500000, 34.000000, -0.9104086
-22.500000, 33.500000, -0.8968306
-22.500000, 33.000000, -0.8833547
-22.500000, 32.500000, -0.8699785
-22.500000, 32.000000, -0.8566978
-22.500000, 31.500000, -0.8435131
-22.500000, 31.000000, -0.8304217
-22.500000, 30.500000, -0.8174216
-22.500000, 30.000000, -0.8045107
-22.500000, 29.500000, -0.7916885
-22.500000, 29.000000, -0.7789532
-22.500000, 28.500000, -0.766305
-22.500000, 28.000000, -0.7537403
-22.500000, 27.500000, -0.7412604
-22.500000, 27.000000, -0.7288644
-22.500000, 26.500000, -0.7165518
-22.500000, 26.000000, -0.7043206
-22.500000, 25.500000, -0.6921738
-22.500000, 25.000000, -0.6801086
-22.500000, 24.500000, -0.6681259
-22.500000, 24.000000, -0.6562272
-22.500000, 23.500000, -0.6444114
-22.500000, 23.000000, -0.6326802
-22.500000, 22.500000, -0.6210345
-22.500000, 22.000000, -0.609475
-22.500000, 21.500000, -0.5980035
-22.500000, 21.000000, -0.5866208
-22.500000, 20.500000, -0.5753276
-22.500000, 20.000000, -0.5641277
-22.500000, 19.500000, -0.5530227
-22.500000, 19.000000, -0.5420142
-22.500000, 18.500000, -0.5311049
-22.500000, 18.000000, -0.520298
-22.500000, 17.500000, -0.5095953
-22.500000, 17.000000, -0.4990017
-22.500000, 16.500000, -0.4885188
-22.500000, 16.000000, -0.4781514
-22.500000, 15.500000, -0.4679039
-22.500000, 15.000000, -0.4577789
-22.500000, 14.500000, -0.4477834
-22.500000, 14.000000, -0.4379199
-22.500000, 13.500000, -0.4281941
-22.500000, 13.000000, -0.4186123
-22.500000, 12.500000, -0.409179
-22.500000, 12.000000, -0.399902
-22.500000, 11.500000, -0.3907855
-22.500000, 11.000000, -0.3818383
-22.500000, 10.500000, -0.3730651
-22.500000, 10.000000, -0.3644753
-22.500000, 9.500000, -0.3560765
-22.500000, 9.000000, -0.3478756
-22.500000, 8.500000, -0.3398828
-22.500000, 8.000000, -0.3321048
-22.500000, 7.500000, -0.3245535
-22.500000, 7.000000, -0.3172351
-22.500000, 6.500000, -0.3101622
-22.500000, 6.000000, -0.3033447
-22.500000, 5.500000, -0.2967927
-22.500000, 5.000000, -0.2905167
-22.500000, 4.500000, -0.2845277
-22.500000, 4.000000, -0.2788385
-22.500000, 3.500000, -0.2734588
-22.500000, 3.000000, -0.2684022
-22.500000, 2.500000, -0.2636798
-22.500000, 2.000000, -0.2593039
-22.500000, 1.500000, -0.2552862
-22.500000, 1.000000, -0.2516376
-22.500000, 0.500000, -0.2483703
-22.500000, 0.000000, -0.2454959
-22.500000, -0.500000, -0.2430233
-22.500000, -1.000000, -0.2409646
-22.500000, -1.500000, -0.2393272
-22.500000, -2.000000, -0.2381189
-22.500000, -2.500000, -0.2373478
-22.500000, -3.000000, -0.2370182
-22.500000, -3.500000, -0.2371328
-22.500000, -4.000000, -0.2376955
-22.500000, -4.500000, -0.2387057
-22.500000, -5.000000, -0.2401607
-22.500000, -5.500000, -0.2420577
-22.500000, -6.000000, -0.2443917
-22.500000, -6.500000, -0.2471532
-22.500000, -7.000000, -0.2503351
-22.500000, -7.500000, -0.2539265
-22.500000, -8.000000, -0.2579148
-22.500000, -8.500000, -0.2622888
-22.500000, -9.000000, -0.2670336
-22.500000, -9.500000, -0.2721365
-22.500000, -10.000000, -0.2775813
-22.500000, -10.500000, -0.2833551
-22.500000, -11.000000, -0.2894433
-22.500000, -11.500000, -0.2958295
-22.500000, -12.000000, -0.302502
-22.500000, -12.500000, -0.309446
-22.500000, -13.000000, -0.3166473
-22.500000, -13.500000, -0.3240941
-22.500000, -14.000000, -0.3317729
-22.500000, -14.500000, -0.3396724
-22.500000, -15.000000, -0.3477819
-22.500000, -15.500000, -0.3560899
-22.500000, -16.000000, -0.3645854
-22.500000, -16.500000, -0.3732608
-22.500000, -17.000000, -0.3821047
-22.500000, -17.500000, -0.3911093
-22.500000, -18.000000, -0.400267
-22.500000, -18.500000, -0.4095699
-22.500000, -19.000000, -0.4190112
-22.500000, -19.500000, -0.4285837
-22.500000, -20.000000, -0.4382817
-22.500000, -20.500000, -0.4480986
-22.500000, -21.000000, -0.4580298
-22.500000, -21.500000, -0.4680705
-22.500000, -22.000000, -0.478216
-22.500000, -22.500000, -0.4884625
-22.500000, -23.000000, -0.4988052
-22.500000, -23.500000, -0.5092414
-22.500000, -24.000000, -0.5197682
-22.500000, -24.500000, -0.5303819
-22.500000, -25.000000, -0.5410806
-22.500000, -25.500000, -0.5518618
-22.500000, -26.000000, -0.5627236
-22.500000, -26.500000, -0.5736638
-22.500000, -27.000000, -0.5846814
-22.500000, -27.500000, -0.5957754
-22.500000, -28.000000, -0.6069453
-22.500000, -28.500000, -0.618188
-22.500000, -29.000000, -0.6295052
-22.500000, -29.500000, -0.6408965
-22.500000, -30.000000, -0.6523617
-22.500000, -30.500000, -0.6638996
-22.500000, -31.000000, -0.6755107
-22.500000, -31.500000, -0.6871971
-22.500000, -32.000000, -0.6989588
-22.500000, -32.500000, -0.7107955
-22.500000, -33.000000, -0.7227097
