-7.000000, 12.000000, 0.853064
-7.000000, 12.500000, 0.91414
-7.000000, 13.000000, 0.978522
-7.000000, 13.500000, 1.046241
-7.000000, 14.000000, 1.117324
-7.000000, 14.500000, 1.191793
-7.000000, 15.000000, 1.26967
-7.000000, 15.500000, 1.350971
-7.000000, 16.000000, 1.435711
-7.000000, 16.500000, 1.523903
-7.000000, 17.000000, 1.615557
-7.000000, 17.500000, 1.710681
-7.000000, 18.000000, 1.809282
-7.000000, 18.500000, 1.911366
-7.000000, 19.000000, 2.016939
-7.000000, 19.500000, 2.126003
-7.000000, 20.000000, 2.238562
-7.000000, 20.500000, 2.354619
-7.000000, 21.000000, 2.474177
-7.000000, 21.500000, 2.597237
-7.000000, 22.000000, 2.723802
-7.000000, 22.500000, 2.853875
-7.000000, 23.000000, 2.987459
-7.000000, 23.500000, 3.124556
-7.000000, 24.000000, 3.26517
-7.000000, 24.500000, 3.409306
-7.000000, 25.000000, 3.556968
-7.000000, 25.500000, 3.70816
-7.000000, 26.000000, 3.862891
-7.000000, 26.500000, 4.021166
-7.000000, 27.000000, 4.182992
-7.000000, 27.500000, 4.348379
-7.000000, 28.000000, 4.517335
-7.000000, 28.500000, 4.689872
-7.000000, 29.000000, 4.866
-7.000000, 29.500000, 5.045731
-7.000000, 30.000000, 5.229078
-7.000000, 30.500000, 5.416056
-7.000000, 31.000000, 5.60668
-7.000000, 31.500000, 5.800966
-7.000000, 32.000000, 5.998932
-7.000000, 32.500000, 6.200595
-7.000000, 33.000000, 6.405975
-7.000000, 33.500000, 6.615093
-7.000000, 34.000000, 6.82797
-7.000000, 34.500000, 7.044629
-7.000000, 35.000000, 7.265093
-7.000000, 35.500000, 7.489389
-7.000000, 36.000000, 7.717541
-7.000000, 36.500000, 7.949579
-7.000000, 37.000000, 8.185529
-7.000000, 37.500000, 8.425422
-7.000000, 38.000000, 8.66929
-7.000000, 38.500000, 8.917163
-7.000000, 39.000000, 9.169077
-7.000000, 39.500000, 9.425067
-7.000000, 40.000000, 9.685167
-7.000000, 40.500000, 9.949417
-7.000000, 41.000000, 10.217855
-7.000000, 41.500000, 10.490523
-7.000000, 42.000000, 10.767462
-7.000000, 42.500000, 11.048715
-6.500000, -42.500000, 11.063978
-6.500000, -42.000000, 10.782262
-6.500000, -41.500000, 10.504849
-6.500000, -41.000000, 10.231697
-6.500000, -40.500000, 9.962761
-6.500000, -40.000000, 9.698002
-6.500000, -39.500000, 9.437379
-6.500000, -39.000000, 9.180854
-6.500000, -38.500000, 8.928391
-6.500000, -38.000000, 8.679954
-6.500000, -37.500000, 8.435508
-6.500000, -37.000000, 8.195022
-6.500000, -36.500000, 7.958463
-6.500000, -36.000000, 7.725802
-6.500000, -35.500000, 7.497009
-6.500000, -35.000000, 7.272057
-6.500000, -34.500000, 7.05092
-6.500000, -34.000000, 6.833572
-6.500000, -33.500000, 6.61999
-6.500000, -33.000000, 6.410151
-6.500000, -32.500000, 6.204033
-6.500000, -32.000000, 6.001616
-6.500000, -31.500000, 5.802881
-6.500000, -31.000000, 5.60781
-6.500000, -30.500000, 5.416387
-6.500000, -30.000000, 5.228595
-6.500000, -29.500000, 5.04442
-6.500000, -29.000000, 4.86385
-6.500000, -28.500000, 4.686872
-6.500000, -28.000000, 4.513476
-6.500000, -27.500000, 4.343651
-6.500000, -27.000000, 4.177389
-6.500000, -26.500000, 4.014683
-6.500000, -26.000000, 3.855527
-6.500000, -25.500000, 3.699914
-6.500000, -25.000000, 3.547842
-6.500000, -24.500000, 3.399307
-6.500000, -24.000000, 3.254307
-6.500000, -23.500000, 3.11284
-6.500000, -23.000000, 2.974907
-6.500000, -22.500000, 2.840507
-6.500000, -22.000000, 2.709642
-6.500000, -21.500000, 2.582314
-6.500000, -21.000000, 2.458524
-6.500000, -20.500000, 2.338275
-6.500000, -20.000000, 2.22157
-6.500000, -19.500000, 2.108412
-6.500000, -19.000000, 1.998802
-6.500000, -18.500000, 1.892743
-6.500000, -18.000000, 1.790236
-6.500000, -17.500000, 1.691281
-6.500000, -17.000000, 1.595875
-6.500000, -16.500000, 1.504017
-6.500000, -16.000000, 1.415701
-6.500000, -15.500000, 1.330918
-6.500000, -15.000000, 1.249658
-6.500000, -14.500000, 1.171905
-6.500000, -14.000000, 1.097642
-6.500000, -13.500000, 1.026845
-6.500000, -13.000000, 0.959486
-6.500000, -12.500000, 0.89553
-6.500000, -12.000000, 0.834939
-6.500000, -11.500000, 0.777667
-6.500000, -11.000000, 0.72366
-6.500000, -10.500000, 0.672861
-6.500000, -10.000000, 0.625202
-6.500000, -9.500000, 0.580613
-6.500000, -9.000000, 0.539013
-6.500000, -8.500000, 0.50032
-6.500000, -8.000000, 0.464444
-6.500000, -7.500000, 0.431291
-6.500000, -7.000000, 0.400767
-6.500000, -6.500000, 0.372774
-6.500000, -6.000000, 0.347216
-6.500000, -5.500000, 0.323997
-6.500000, -5.000000, 0.303026
-6.500000, -4.500000, 0.284217
-6.500000, -4.000000, 0.267491
-6.500000, -3.500000, 0.252775
-6.500000, -3.000000, 0.240007
-6.500000, -2.500000, 0.229136
-6.500000, -2.000000, 0.220121
-6.500000, -1.500000, 0.212932
-6.500000, -1.000000, 0.207551
-6.500000, -0.500000, 0.203972
-6.500000, 0.000000, 0.202198
-6.500000, 0.500000, 0.202247
-6.500000, 1.000000, 0.204143
-6.500000, 1.500000, 0.207923
-6.500000, 2.000000, 0.213629
-6.500000, 2.500000, 0.221315
-6.500000, 3.000000, 0.231039
-6.500000, 3.500000, 0.242866
-6.500000, 4.000000, 0.256866
-6.500000, 4.500000, 0.273112
-6.500000, 5.000000, 0.291681
-6.500000, 5.500000, 0.312649
-6.500000, 6.000000, 0.336096
-6.500000, 6.500000, 0.3621
-6.500000, 7.000000, 0.390738
-6.500000, 7.500000, 0.422084
-6.500000, 8.000000, 0.456212
-6.500000, 8.500000, 0.493191
-6.500000, 9.000000, 0.533087
-6.500000, 9.500000, 0.575961
-6.500000, 10.000000, 0.621872
-6.500000, 10.500000, 0.670873
-6.500000, 11.000000, 0.723013
-6.500000, 11.500000, 0.778337
-6.500000, 12.000000, 0.836885
-6.500000, 12.500000, 0.898695
-6.500000, 13.000000, 0.963797
-6.500000, 13.500000, 1.032221
-6.500000, 14.000000, 1.103992
-6.500000, 14.500000, 1.179132
-6.500000, 15.000000, 1.257659
-6.500000, 15.500000, 1.33959
-6.500000, 16.000000, 1.424938
-6.500000, 16.500000, 1.513715
-6.500000, 17.000000, 1.60593
-6.500000, 17.500000, 1.701592
-6.500000, 18.000000, 1.800708
-6.500000, 18.500000, 1.903282
-6.500000, 19.000000, 2.009319
-6.500000, 19.500000, 2.118823
-6.500000, 20.000000, 2.231797
-6.500000, 20.500000, 2.348245
-6.500000, 21.000000, 2.468169
-6.500000, 21.500000, 2.591572
-6.500000, 22.000000, 2.718456
-6.500000, 22.500000, 2.848824
-6.500000, 23.000000, 2.98268
-6.500000, 23.500000, 3.120026
-6.500000, 24.000000, 3.260868
-6.500000, 24.500000, 3.40521
-6.500000, 25.000000, 3.553057
-6.500000, 25.500000, 3.704415
-6.500000, 26.000000, 3.85929
-6.500000, 26.500000, 4.01769
-6.500000, 27.000000, 4.179623
-6.500000, 27.500000, 4.345099
-6.500000, 28.000000, 4.514126
-6.500000, 28.500000, 4.686717
-6.500000, 29.000000, 4.862882
-6.500000, 29.500000, 5.042635
-6.500000, 30.000000, 5.22599
-6.500000, 30.500000, 5.41296
-6.500000, 31.000000, 5.603562
-6.500000, 31.500000, 5.797812
-6.500000, 32.000000, 5.995729
-6.500000, 32.500000, 6.197331
-6.500000, 33.000000, 6.402638
-6.500000, 33.500000, 6.611671
-6.500000, 34.000000, 6.824451
-6.500000, 34.500000, 7.041004
-6.500000, 35.000000, 7.261352
-6.500000, 35.500000, 7.485521
-6.500000, 36.000000, 7.713537
-6.500000, 36.500000, 7.94543
-6.500000, 37.000000, 8.181227
-6.500000, 37.500000, 8.420958
-6.500000, 38.000000, 8.664656
-6.500000, 38.500000, 8.912353
-6.500000, 39.000000, 9.164083
-6.500000, 39.500000, 9.419881
-6.500000, 40.000000, 9.679784
-6.500000, 40.500000, 9.94383
-6.500000, 41.000000, 10.212058
-6.500000, 41.500000, 10.484509
-6.500000, 42.000000, 10.761227
-6.500000, 42.500000, 11.042253
-6.000000, -42.500000, 11.059365
-6.000000, -42.000000, 10.777915
-6.000000, -41.500000, 10.500766
-6.000000, -41.000000, 10.227871
-6.000000, -40.500000, 9.959189
-6.000000, -40.000000, 9.694678
-6.000000, -39.500000, 9.434299
-6.000000, -39.000000, 9.178012
-6.000000, -38.500000, 8.92578
-6.000000, -38.000000, 8.677569
-6.000000, -37.500000, 8.433342
-6.000000, -37.000000, 8.193068
-6.000000, -36.500000, 7.956714
-6.000000, -36.000000, 7.72425
-6.000000, -35.500000, 7.495646
-6.000000, -35.000000, 7.270875
-6.000000, -34.500000, 7.049909
-6.000000, -34.000000, 6.832723
-6.000000, -33.500000, 6.619292
-6.000000, -33.000000, 6.409593
-6.000000, -32.500000, 6.203604
-6.000000, -32.000000, 6.001304
-6.000000, -31.500000, 5.802673
-6.000000, -31.000000, 5.607692
-6.000000, -30.500000, 5.416345
-6.000000, -30.000000, 5.228615
-6.000000, -29.500000, 5.044486
-6.000000, -29.000000, 4.863945
-6.000000, -28.500000, 4.686979
-6.000000, -28.000000, 4.513576
-6.000000, -27.500000, 4.343726
-6.000000, -27.000000, 4.177419
-6.000000, -26.500000, 4.014647
-6.000000, -26.000000, 3.855402
-6.000000, -25.500000, 3.699679
-6.000000, -25.000000, 3.547472
-6.000000, -24.500000, 3.398778
-6.000000, -24.000000, 3.253592
-6.000000, -23.500000, 3.111913
-6.000000, -23.000000, 2.97374
-6.000000, -22.500000, 2.839072
-6.000000, -22.000000, 2.707909
-6.000000, -21.500000, 2.580252
-6.000000, -21.000000, 2.456102
-6.000000, -20.500000, 2.335461
-6.000000, -20.000000, 2.218331
-6.000000, -19.500000, 2.104713
-6.000000, -19.000000, 1.994611
-6.000000, -18.500000, 1.888024
-6.000000, -18.000000, 1.784954
-6.000000, -17.500000, 1.685401
-6.000000, -17.000000, 1.589364
-6.000000, -16.500000, 1.496839
-6.000000, -16.000000, 1.407822
-6.000000, -15.500000, 1.322305
-6.000000, -15.000000, 1.240279
-6.000000, -14.500000, 1.161731
-6.000000, -14.000000, 1.086643
-6.000000, -13.500000, 1.014996
-6.000000, -13.000000, 0.946762
-6.000000, -12.500000, 0.881912
-6.000000, -12.000000, 0.82041
-6.000000, -11.500000, 0.762213
-6.000000, -11.000000, 0.707274
-6.000000, -10.500000, 0.655539
-6.000000, -10.000000, 0.606948
-6.000000, -9.500000, 0.561433
-6.000000, -9.000000, 0.518922
-6.000000, -8.500000, 0.479338
-6.000000, -8.000000, 0.442598
-6.000000, -7.500000, 0.408614
-6.000000, -7.000000, 0.377298
-6.000000, -6.500000, 0.348559
-6.000000, -6.000000, 0.322304
-6.000000, -5.500000, 0.298444
-6.000000, -5.000000, 0.276893
-6.000000, -4.500000, 0.257566
-6.000000, -4.000000, 0.240387
-6.000000, -3.500000, 0.225287
-6.000000, -3.000000, 0.212205
-6.000000, -2.500000, 0.201088
-6.000000, -2.000000, 0.191896
-6.000000, -1.500000, 0.184599
-6.000000, -1.000000, 0.179177
-6.000000, -0.500000, 0.175622
-6.000000, 0.000000, 0.173938
-6.000000, 0.500000, 0.174137
-6.000000, 1.000000, 0.176244
-6.000000, 1.500000, 0.180292
-6.000000, 2.000000, 0.186323
-6.000000, 2.500000, 0.194385
-6.000000, 3.000000, 0.204536
-6.000000, 3.500000, 0.216837
-6.000000, 4.000000, 0.231355
-6.000000, 4.500000, 0.24816
-6.000000, 5.000000, 0.267325
-6.000000, 5.500000, 0.288923
-6.000000, 6.000000, 0.31303
-6.000000, 6.500000, 0.33972
-6.000000, 7.000000, 0.369066
-6.000000, 7.500000, 0.40114
-6.000000, 8.000000, 0.43601
-6.000000, 8.500000, 0.473742
-6.000000, 9.000000, 0.514398
-6.000000, 9.500000, 0.558037
-6.000000, 10.000000, 0.604713
-6.000000, 10.500000, 0.654477
-6.000000, 11.000000, 0.707374
-6.000000, 11.500000, 0.763447
-6.000000, 12.000000, 0.822734
-6.000000, 12.500000, 0.885269
-6.000000, 13.000000, 0.951082
-6.000000, 13.500000, 1.0202
-6.000000, 14.000000, 1.092646
-6.000000, 14.500000, 1.168441
-6.000000, 15.000000, 1.247602
-6.000000, 15.500000, 1.330145
-6.000000, 16.000000, 1.416081
-6.000000, 16.500000, 1.505423
-6.000000, 17.000000, 1.598179
-6.000000, 17.500000, 1.694356
-6.000000, 18.000000, 1.793962
-6.000000, 18.500000, 1.897001
-6.000000, 19.000000, 2.003479
-6.000000, 19.500000, 2.113398
-6.000000, 20.000000, 2.226762
-6.000000, 20.500000, 2.343575
-6.000000, 21.000000, 2.46384
-6.000000, 21.500000, 2.587558
-6.000000, 22.000000, 2.714735
-6.000000, 22.500000, 2.845372
-6.000000, 23.000000, 2.979474
-6.000000, 23.500000, 3.117045
-6.000000, 24.000000, 3.258089
-6.000000, 24.500000, 3.402612
-6.000000, 25.000000, 3.550619
-6.000000, 25.500000, 3.702117
-6.000000, 26.000000, 3.857114
-6.000000, 26.500000, 4.015616
-6.000000, 27.000000, 4.177633
-6.000000, 27.500000, 4.343175
-6.000000, 28.000000, 4.512252
-6.000000, 28.500000, 4.684876
-6.000000, 29.000000, 4.861059
-6.000000, 29.500000, 5.040814
-6.000000, 30.000000, 5.224156
-6.000000, 30.500000, 5.4111
-6.000000, 31.000000, 5.601663
-6.000000, 31.500000, 5.795861
-6.000000, 32.000000, 5.993713
-6.000000, 32.500000, 6.195238
-6.000000, 33.000000, 6.400457
-6.000000, 33.500000, 6.609391
-6.000000, 34.000000, 6.822063
-6.000000, 34.500000, 7.038496
-6.000000, 35.000000, 7.258715
-6.000000, 35.500000, 7.482747
-6.000000, 36.000000, 7.710617
-6.000000, 36.500000, 7.942355
-6.000000, 37.000000, 8.17799
-6.000000, 37.500000, 8.417552
-6.000000, 38.000000, 8.661073
-6.000000, 38.500000, 8.908586
-6.000000, 39.000000, 9.160125
-6.000000, 39.500000, 9.415727
-6.000000, 40.000000, 9.675427
-6.000000, 40.500000, 9.939265
-6.000000, 41.000000, 10.20728
-6.000000, 41.500000, 10.479513
-6.000000, 42.000000, 10.756006
-6.000000, 42.500000, 11.036804
-5.500000, -42.500000, 11.055619
-5.500000, -42.000000, 10.774433
-5.500000, -41.500000, 10.497544
-5.500000, -41.000000, 10.224907
-5.500000, -40.500000, 9.956478
-5.500000, -40.000000, 9.692216
-5.500000, -39.500000, 9.432081
-5.500000, -39.000000, 9.176033
-5.500000, -38.500000, 8.924036
-5.500000, -38.000000, 8.676054
-5.500000, -37.500000, 8.432051
-5.500000, -37.000000, 8.191994
-5.500000, -36.500000, 7.95585
-5.500000, -36.000000, 7.72359
-5.500000, -35.500000, 7.495183
-5.500000, -35.000000, 7.2706
-5.500000, -34.500000, 7.049815
-5.500000, -34.000000, 6.8328
-5.500000, -33.500000, 6.619532
-5.500000, -33.000000, 6.409985
-5.500000, -32.500000, 6.204138
-5.500000, -32.000000, 6.001969
-5.500000, -31.500000, 5.803457
-5.500000, -31.000000, 5.608583
-5.500000, -30.500000, 5.417329
-5.500000, -30.000000, 5.229679
-5.500000, -29.500000, 5.045615
-5.500000, -29.000000, 4.865124
-5.500000, -28.500000, 4.688191
-5.500000, -28.000000, 4.514805
-5.500000, -27.500000, 4.344953
-5.500000, -27.000000, 4.178626
-5.500000, -26.500000, 4.015813
-5.500000, -26.000000, 3.856507
-5.500000, -25.500000, 3.700701
-5.500000, -25.000000, 3.548389
-5.500000, -24.500000, 3.399565
-5.500000, -24.000000, 3.254225
-5.500000, -23.500000, 3.112366
-5.500000, -23.000000, 2.973985
-5.500000, -22.500000, 2.839082
-5.500000, -22.000000, 2.707655
-5.500000, -21.500000, 2.579704
-5.500000, -21.000000, 2.455229
-5.500000, -20.500000, 2.334231
-5.500000, -20.000000, 2.216712
-5.500000, -19.500000, 2.102672
-5.500000, -19.000000, 1.992113
-5.500000, -18.500000, 1.885035
-5.500000, -18.000000, 1.781439
-5.500000, -17.500000, 1.681325
-5.500000, -17.000000, 1.584691
-5.500000, -16.500000, 1.491534
-5.500000, -16.000000, 1.40185
-5.500000, -15.500000, 1.315633
-5.500000, -15.000000, 1.232873
-5.500000, -14.500000, 1.153559
-5.500000, -14.000000, 1.077675
-5.500000, -13.500000, 1.005203
-5.500000, -13.000000, 0.936119
-5.500000, -12.500000, 0.870396
-5.500000, -12.000000, 0.808001
-5.500000, -11.500000, 0.748897
-5.500000, -11.000000, 0.693039
-5.500000, -10.500000, 0.640378
-5.500000, -10.000000, 0.590859
-5.500000, -9.500000, 0.544422
-5.500000, -9.000000, 0.500999
-5.500000, -8.500000, 0.46052
-5.500000, -8.000000, 0.422907
-5.500000, -7.500000, 0.38808
-5.500000, -7.000000, 0.355957
-5.500000, -6.500000, 0.326453
-5.500000, -6.000000, 0.299481
-5.500000, -5.500000, 0.274958
-5.500000, -5.000000, 0.252801
-5.500000, -4.500000, 0.232931
-5.500000, -4.000000, 0.215275
-5.500000, -3.500000, 0.199766
-5.500000, -3.000000, 0.186345
-5.500000, -2.500000, 0.174961
-5.500000, -2.000000, 0.165574
-5.500000, -1.500000, 0.158152
-5.500000, -1.000000, 0.152677
-5.500000, -0.500000, 0.149138
-5.500000, 0.000000, 0.147537
-5.500000, 0.500000, 0.147885
-5.500000, 1.000000, 0.150205
-5.500000, 1.500000, 0.154526
-5.500000, 2.000000, 0.160887
-5.500000, 2.500000, 0.169336
-5.500000, 3.000000, 0.179924
-5.500000, 3.500000, 0.192712
-5.500000, 4.000000, 0.20776
-5.500000, 4.500000, 0.225137
-5.500000, 5.000000, 0.244911
-5.500000, 5.500000, 0.267152
-5.500000, 6.000000, 0.291931
-5.500000, 6.500000, 0.319317
-5.500000, 7.000000, 0.349381
-5.500000, 7.500000, 0.38219
-5.500000, 8.000000, 0.417808
-5.500000, 8.500000, 0.456297
-5.500000, 9.000000, 0.497716
-5.500000, 9.500000, 0.542119
-5.500000, 10.000000, 0.589559
-5.500000, 10.500000, 0.640081
-5.500000, 11.000000, 0.69373
-5.500000, 11.500000, 0.750544
-5.500000, 12.000000, 0.81056
-5.500000, 12.500000, 0.873808
-5.500000, 13.000000, 0.940318
-5.500000, 13.500000, 1.010115
-5.500000, 14.000000, 1.083219
-5.500000, 14.500000, 1.159651
-5.500000, 15.000000, 1.239427
-5.500000, 15.500000, 1.32256
-5.500000, 16.000000, 1.409064
-5.500000, 16.500000, 1.498948
-5.500000, 17.000000, 1.592221
-5.500000, 17.500000, 1.68889
-5.500000, 18.000000, 1.788962
-5.500000, 18.500000, 1.892441
-5.500000, 19.000000, 1.999333
-5.500000, 19.500000, 2.109641
-5.500000, 20.000000, 2.22337
-5.500000, 20.500000, 2.340522
-5.500000, 21.000000, 2.4611
-5.500000, 21.500000, 2.585109
-5.500000, 22.000000, 2.712552
-5.500000, 22.500000, 2.843433
-5.500000, 23.000000, 2.977756
-5.500000, 23.500000, 3.115526
-5.500000, 24.000000, 3.256748
-5.500000, 24.500000, 3.401427
-5.500000, 25.000000, 3.549571
-5.500000, 25.500000, 3.701186
-5.500000, 26.000000, 3.856281
-5.500000, 26.500000, 4.014863
-5.500000, 27.000000, 4.176943
-5.500000, 27.500000, 4.342531
-5.500000, 28.000000, 4.511638
-5.500000, 28.500000, 4.684275
-5.500000, 29.000000, 4.860457
-5.500000, 29.500000, 5.040197
-5.500000, 30.000000, 5.22351
-5.500000, 30.500000, 5.410411
-5.500000, 31.000000, 5.600918
-5.500000, 31.500000, 5.795049
-5.500000, 32.000000, 5.992822
-5.500000, 32.500000, 6.194257
-5.500000, 33.000000, 6.399376
-5.500000, 33.500000, 6.608199
-5.500000, 34.000000, 6.820751
-5.500000, 34.500000, 7.037055
-5.500000, 35.000000, 7.257136
-5.500000, 35.500000, 7.481021
-5.500000, 36.000000, 7.708738
-5.500000, 36.500000, 7.940314
-5.500000, 37.000000, 8.17578
-5.500000, 37.500000, 8.415166
-5.500000, 38.000000, 8.658505
-5.500000, 38.500000, 8.90583
-5.500000, 39.000000, 9.157175
-5.500000, 39.500000, 9.412577
-5.500000, 40.000000, 9.672072
-5.500000, 40.500000, 9.9357
-5.500000, 41.000000, 10.2035
-5.500000, 41.500000, 10.475513
-5.500000, 42.000000, 10.751783
-5.500000, 42.500000, 11.032353
-5.000000, -42.500000, 11.052739
-5.000000, -42.000000, 10.771813
-5.000000, -41.500000, 10.495181
-5.000000, -41.000000, 10.222797
-5.000000, -40.500000, 9.954618
-5.000000, -40.000000, 9.690602
-5.000000, -39.500000, 9.43071
-5.000000, -39.000000, 9.174901
-5.000000, -38.500000, 8.923138
-5.000000, -38.000000, 8.675385
-5.000000, -37.500000, 8.431607
-5.000000, -37.000000, 8.191769
-5.000000, -36.500000, 7.95584
-5.000000, -36.000000, 7.723787
-5.000000, -35.500000, 7.495581
-5.000000, -35.000000, 7.271193
-5.000000, -34.500000, 7.050594
-5.000000, -34.000000, 6.833759
-5.000000, -33.500000, 6.620661
-5.000000, -33.000000, 6.411276
-5.000000, -32.500000, 6.205581
-5.000000, -32.000000, 6.003554
-5.000000, -31.500000, 5.805173
-5.000000, -31.000000, 5.61042
-5.000000, -30.500000, 5.419274
-5.000000, -30.000000, 5.231719
-5.000000, -29.500000, 5.047737
-5.000000, -29.000000, 4.867313
-5.000000, -28.500000, 4.690433
-5.000000, -28.000000, 4.517083
-5.000000, -27.500000, 4.347251
-5.000000, -27.000000, 4.180925
-5.000000, -26.500000, 4.018095
-5.000000, -26.000000, 3.858753
-5.000000, -25.500000, 3.70289
-5.000000, -25.000000, 3.550498
-5.000000, -24.500000, 3.401572
-5.000000, -24.000000, 3.256107
-5.000000, -23.500000, 3.114098
-5.000000, -23.000000, 2.975541
-5.000000, -22.500000, 2.840435
-5.000000, -22.000000, 2.708777
-5.000000, -21.500000, 2.580566
-5.000000, -21.000000, 2.455801
-5.000000, -20.500000, 2.334482
-5.000000, -20.000000, 2.216609
-5.000000, -19.500000, 2.102184
-5.000000, -19.000000, 1.991205
-5.000000, -18.500000, 1.883673
-5.000000, -18.000000, 1.779589
-5.000000, -17.500000, 1.67895
-5.000000, -17.000000, 1.581757
-5.000000, -16.500000, 1.488005
-5.000000, -16.000000, 1.397691
-5.000000, -15.500000, 1.310809
-5.000000, -15.000000, 1.22735
-5.000000, -14.500000, 1.147304
-5.000000, -14.000000, 1.070657
-5.000000, -13.500000, 0.997392
-5.000000, -13.000000, 0.927487
-5.000000, -12.500000, 0.860918
-5.000000, -12.000000, 0.797656
-5.000000, -11.500000, 0.737666
-5.000000, -11.000000, 0.680908
-5.000000, -10.500000, 0.627338
-5.000000, -10.000000, 0.576906
-5.000000, -9.500000, 0.529557
-5.000000, -9.000000, 0.485229
-5.000000, -8.500000, 0.443857
-5.000000, -8.000000, 0.405371
-5.000000, -7.500000, 0.369698
-5.000000, -7.000000, 0.33676
-5.000000, -6.500000, 0.306481
-5.000000, -6.000000, 0.278779
-5.000000, -5.500000, 0.253577
-5.000000, -5.000000, 0.230797
-5.000000, -4.500000, 0.210365
-5.000000, -4.000000, 0.192212
-5.000000, -3.500000, 0.176274
-5.000000, -3.000000, 0.162494
-5.000000, -2.500000, 0.150824
-5.000000, -2.000000, 0.141224
-5.000000, -1.500000, 0.133663
-5.000000, -1.000000, 0.128121
-5.000000, -0.500000, 0.124587
-5.000000, 0.000000, 0.123062
-5.000000, 0.500000, 0.123555
-5.000000, 1.000000, 0.126085
-5.000000, 1.500000, 0.130679
-5.000000, 2.000000, 0.137375
-5.000000, 2.500000, 0.146213
-5.000000, 3.000000, 0.157246
-5.000000, 3.500000, 0.170526
-5.000000, 4.000000, 0.186113
-5.000000, 4.500000, 0.204069
-5.000000, 5.000000, 0.224459
-5.000000, 5.500000, 0.247349
-5.000000, 6.000000, 0.272806
-5.000000, 6.500000, 0.300894
-5.000000, 7.000000, 0.331679
-5.000000, 7.500000, 0.365225
-5.000000, 8.000000, 0.401591
-5.000000, 8.500000, 0.440835
-5.000000, 9.000000, 0.483014
-5.000000, 9.500000, 0.528177
-5.000000, 10.000000, 0.576372
-5.000000, 10.500000, 0.627644
-5.000000, 11.000000, 0.682034
-5.000000, 11.500000, 0.739577
-5.000000, 12.000000, 0.800307
-5.000000, 12.500000, 0.864254
-5.000000, 13.000000, 0.931444
-5.000000, 13.500000, 1.0019
-5.000000, 14.000000, 1.075644
-5.000000, 14.500000, 1.152692
-5.000000, 15.000000, 1.23306
-5.000000, 15.500000, 1.316762
-5.000000, 16.000000, 1.403809
-5.000000, 16.500000, 1.494211
-5.000000, 17.000000, 1.587976
-5.000000, 17.500000, 1.685111
-5.000000, 18.000000, 1.785623
-5.000000, 18.500000, 1.889517
-5.000000, 19.000000, 1.996797
-5.000000, 19.500000, 2.107468
-5.000000, 20.000000, 2.221534
-5.000000, 20.500000, 2.338998
-5.000000, 21.000000, 2.459865
-5.000000, 21.500000, 2.584139
-5.000000, 22.000000, 2.711823
-5.000000, 22.500000, 2.842922
-5.000000, 23.000000, 2.977442
-5.000000, 23.500000, 3.115386
-5.000000, 24.000000, 3.256762
-5.000000, 24.500000, 3.401575
-5.000000, 25.000000, 3.549833
-5.000000, 25.500000, 3.701544
-5.000000, 26.000000, 3.856715
-5.000000, 26.500000, 4.015358
-5.000000, 27.000000, 4.17748
-5.000000, 27.500000, 4.343095
-5.000000, 28.000000, 4.512213
-5.000000, 28.500000, 4.684847
-5.000000, 29.000000, 4.861011
-5.000000, 29.500000, 5.040719
-5.000000, 30.000000, 5.223988
-5.000000, 30.500000, 5.410832
-5.000000, 31.000000, 5.601271
-5.000000, 31.500000, 5.795322
-5.000000, 32.000000, 5.993004
-5.000000, 32.500000, 6.194338
-5.000000, 33.000000, 6.399346
-5.000000, 33.500000, 6.608049
-5.000000, 34.000000, 6.820472
-5.000000, 34.500000, 7.036639
-5.000000, 35.000000, 7.256575
-5.000000, 35.500000, 7.480308
-5.000000, 36.000000, 7.707864
-5.000000, 36.500000, 7.939274
-5.000000, 37.000000, 8.174566
-5.000000, 37.500000, 8.413773
-5.000000, 38.000000, 8.656927
-5.000000, 38.500000, 8.904061
-5.000000, 39.000000, 9.155211
-5.000000, 39.500000, 9.410412
-5.000000, 40.000000, 9.669702
-5.000000, 40.500000, 9.93312
-5.000000, 41.000000, 10.200706
-5.000000, 41.500000, 10.472502
-5.000000, 42.000000, 10.74855
-5.000000, 42.500000, 11.028895
-4.500000, -42.500000, 11.050738
-4.500000, -42.000000, 10.770064
-4.500000, -41.500000, 10.493682
-4.500000, -41.000000, 10.221545
-4.500000, -40.500000, 9.953611
-4.500000, -40.000000, 9.689837
-4.500000, -39.500000, 9.430183
-4.500000, -39.000000, 9.17461
-4.500000, -38.500000, 8.923078
-4.500000, -38.000000, 8.675553
-4.500000, -37.500000, 8.431998
-4.500000, -37.000000, 8.192379
-4.500000, -36.500000, 7.956664
-4.500000, -36.000000, 7.724819
-4.500000, -35.500000, 7.496816
-4.500000, -35.000000, 7.272625
-4.500000, -34.500000, 7.052217
-4.500000, -34.000000, 6.835564
-4.500000, -33.500000, 6.622642
-4.500000, -33.000000, 6.413426
-4.500000, -32.500000, 6.20789
-4.500000, -32.000000, 6.006014
-4.500000, -31.500000, 5.807774
-4.500000, -31.000000, 5.613151
-4.500000, -30.500000, 5.422125
-4.500000, -30.000000, 5.234677
-4.500000, -29.500000, 5.050791
-4.500000, -29.000000, 4.870449
-4.500000, -28.500000, 4.693637
-4.500000, -28.000000, 4.520341
-4.500000, -27.500000, 4.350546
-4.500000, -27.000000, 4.184242
-4.500000, -26.500000, 4.021416
-4.500000, -26.000000, 3.862059
-4.500000, -25.500000, 3.706162
-4.500000, -25.000000, 3.553716
-4.500000, -24.500000, 3.404714
-4.500000, -24.000000, 3.25915
-4.500000, -23.500000, 3.117019
-4.500000, -23.000000, 2.978315
-4.500000, -22.500000, 2.843036
-4.500000, -22.000000, 2.711178
-4.500000, -21.500000, 2.582739
-4.500000, -21.000000, 2.457718
-4.500000, -20.500000, 2.336112
-4.500000, -20.000000, 2.217922
-4.500000, -19.500000, 2.103146
-4.500000, -19.000000, 1.991785
-4.500000, -18.500000, 1.883837
-4.500000, -18.000000, 1.779301
-4.500000, -17.500000, 1.678178
-4.500000, -17.000000, 1.580463
-4.500000, -16.500000, 1.486156
-4.500000, -16.000000, 1.395251
-4.500000, -15.500000, 1.307742
-4.500000, -15.000000, 1.223622
-4.500000, -14.500000, 1.142881
-4.500000, -14.000000, 1.065507
-4.500000, -13.500000, 0.991484
-4.500000, -13.000000, 0.920792
-4.500000, -12.500000, 0.85341
-4.500000, -12.000000, 0.789311
-4.500000, -11.500000, 0.728464
-4.500000, -11.000000, 0.670833
-4.500000, -10.500000, 0.616378
-4.500000, -10.000000, 0.565054
-4.500000, -9.500000, 0.516809
-4.500000, -9.000000, 0.471591
-4.500000, -8.500000, 0.429338
-4.500000, -8.000000, 0.389987
-4.500000, -7.500000, 0.353472
-4.500000, -7.000000, 0.319721
-4.500000, -6.500000, 0.288664
-4.500000, -6.000000, 0.260227
-4.500000, -5.500000, 0.234337
-4.500000, -5.000000, 0.210924
-4.500000, -4.500000, 0.189917
-4.500000, -4.000000, 0.171253
-4.500000, -3.500000, 0.15487
-4.500000, -3.000000, 0.140717
-4.500000, -2.500000, 0.128745
-4.500000, -2.000000, 0.118917
-4.500000, -1.500000, 0.111202
-4.500000, -1.000000, 0.105581
-4.500000, -0.500000, 0.102043
-4.500000, 0.000000, 0.100584
-4.500000, 0.500000, 0.101214
-4.500000, 1.000000, 0.103949
-4.500000, 1.500000, 0.108814
-4.500000, 2.000000, 0.115841
-4.500000, 2.500000, 0.125069
-4.500000, 3.000000, 0.136545
-4.500000, 3.500000, 0.150319
-4.500000, 4.000000, 0.166446
-4.500000, 4.500000, 0.184983
-4.500000, 5.000000, 0.205991
-4.500000, 5.500000, 0.22953
-4.500000, 6.000000, 0.255664
-4.500000, 6.500000, 0.284452
-4.500000, 7.000000, 0.315956
-4.500000, 7.500000, 0.350234
-4.500000, 8.000000, 0.387342
-4.500000, 8.500000, 0.427336
-4.500000, 9.000000, 0.470264
-4.500000, 9.500000, 0.516176
-4.500000, 10.000000, 0.565116
-4.500000, 10.500000, 0.617125
-4.500000, 11.000000, 0.67224
-4.500000, 11.500000, 0.730495
-4.500000, 12.000000, 0.791922
-4.500000, 12.500000, 0.856548
-4.500000, 13.000000, 0.924397
-4.500000, 13.500000, 0.995492
-4.500000, 14.000000, 1.069852
-4.500000, 14.500000, 1.147492
-4.500000, 15.000000, 1.228429
-4.500000, 15.500000, 1.312675
-4.500000, 16.000000, 1.400239
-4.500000, 16.500000, 1.491133
-4.500000, 17.000000, 1.585364
-4.500000, 17.500000, 1.682939
-4.500000, 18.000000, 1.783864
-4.500000, 18.500000, 1.888145
-4.500000, 19.000000, 1.995787
-4.500000, 19.500000, 2.106795
-4.500000, 20.000000, 2.221172
-4.500000, 20.500000, 2.338923
-4.500000, 21.000000, 2.460053
-4.500000, 21.500000, 2.584566
-4.500000, 22.000000, 2.712467
-4.500000, 22.500000, 2.84376
-4.500000, 23.000000, 2.978452
-4.500000, 23.500000, 3.116548
-4.500000, 24.000000, 3.258055
-4.500000, 24.500000, 3.402981
-4.500000, 25.000000, 3.551332
-4.500000, 25.500000, 3.703118
-4.500000, 26.000000, 3.858347
-4.500000, 26.500000, 4.017031
-4.500000, 27.000000, 4.179179
-4.500000, 27.500000, 4.344803
-4.500000, 28.000000, 4.513916
-4.500000, 28.500000, 4.686531
-4.500000, 29.000000, 4.862663
-4.500000, 29.500000, 5.042327
-4.500000, 30.000000, 5.225538
-4.500000, 30.500000, 5.412314
-4.500000, 31.000000, 5.602673
-4.500000, 31.500000, 5.796633
-4.500000, 32.000000, 5.994215
-4.500000, 32.500000, 6.19544
-4.500000, 33.000000, 6.400329
-4.500000, 33.500000, 6.608905
-4.500000, 34.000000, 6.821193
-4.500000, 34.500000, 7.037217
-4.500000, 35.000000, 7.257003
-4.500000, 35.500000, 7.480579
-4.500000, 36.000000, 7.707972
-4.500000, 36.500000, 7.939212
-4.500000, 37.000000, 8.17433
-4.500000, 37.500000, 8.413356
-4.500000, 38.000000, 8.656324
-4.500000, 38.500000, 8.903268
-4.500000, 39.000000, 9.154223
-4.500000, 39.500000, 9.409224
-4.500000, 40.000000, 9.668311
-4.500000, 40.500000, 9.931522
-4.500000, 41.000000, 10.198897
-4.500000, 41.500000, 10.470479
-4.500000, 42.000000, 10.746309
-4.500000, 42.500000, 11.026434
-4.000000, -42.500000, 11.049639
-4.000000, -42.000000, 10.769208
-4.000000, -41.500000, 10.493066
-4.000000, -41.000000, 10.221169
-4.000000, -40.500000, 9.953471
-4.000000, -40.000000, 9.689932
-4.000000, -39.500000, 9.43051
-4.000000, -39.000000, 9.175165
-4.000000, -38.500000, 8.92386
-4.000000, -38.000000, 8.676558
-4.000000, -37.500000, 8.433222
-4.000000, -37.000000, 8.193819
-4.000000, -36.500000, 7.958314
-4.000000, -36.000000, 7.726677
-4.000000, -35.500000, 7.498876
-4.000000, -35.000000, 7.274881
-4.000000, -34.500000, 7.054664
-4.000000, -34.000000, 6.838197
-4.000000, -33.500000, 6.625453
-4.000000, -33.000000, 6.416407
-4.000000, -32.500000, 6.211036
-4.000000, -32.000000, 6.009315
-4.000000, -31.500000, 5.811222
-4.000000, -31.000000, 5.616737
-4.000000, -30.500000, 5.425839
-4.000000, -30.000000, 5.238509
-4.000000, -29.500000, 5.054728
-4.000000, -29.000000, 4.874481
-4.000000, -28.500000, 4.69775
-4.000000, -28.000000, 4.524521
-4.000000, -27.500000, 4.35478
-4.000000, -27.000000, 4.188513
-4.000000, -26.500000, 4.025709
-4.000000, -26.000000, 3.866357
-4.000000, -25.500000, 3.710446
-4.000000, -25.000000, 3.557967
-4.000000, -24.500000, 3.408912
-4.000000, -24.000000, 3.263274
-4.000000, -23.500000, 3.121046
-4.000000, -23.000000, 2.982222
-4.000000, -22.500000, 2.846799
-4.000000, -22.000000, 2.714771
-4.000000, -21.500000, 2.586135
-4.000000, -21.000000, 2.460889
-4.000000, -20.500000, 2.33903
-4.000000, -20.000000, 2.220556
-4.000000, -19.500000, 2.105465
-4.000000, -19.000000, 1.993757
-4.000000, -18.500000, 1.88543
-4.000000, -18.000000, 1.780482
-4.000000, -17.500000, 1.678912
-4.000000, -17.000000, 1.580716
-4.000000, -16.500000, 1.485893
-4.000000, -16.000000, 1.394436
-4.000000, -15.500000, 1.306341
-4.000000, -15.000000, 1.221601
-4.000000, -14.500000, 1.140206
-4.000000, -14.000000, 1.062144
-4.000000, -13.500000, 0.987402
-4.000000, -13.000000, 0.915962
-4.000000, -12.500000, 0.847804
-4.000000, -12.000000, 0.782904
-4.000000, -11.500000, 0.721234
-4.000000, -11.000000, 0.662762
-4.000000, -10.500000, 0.607452
-4.000000, -10.000000, 0.555263
-4.000000, -9.500000, 0.506149
-4.000000, -9.000000, 0.460062
-4.000000, -8.500000, 0.416947
-4.000000, -8.000000, 0.376748
-4.000000, -7.500000, 0.339403
-4.000000, -7.000000, 0.304849
-4.000000, -6.500000, 0.27302
-4.000000, -6.000000, 0.24385
-4.000000, -5.500000, 0.217273
-4.000000, -5.000000, 0.193223
-4.000000, -4.500000, 0.171636
-4.000000, -4.000000, 0.152452
-4.000000, -3.500000, 0.135616
-4.000000, -3.000000, 0.121077
-4.000000, -2.500000, 0.108792
-4.000000, -2.000000, 0.098724
-4.000000, -1.500000, 0.090844
-4.000000, -1.000000, 0.085132
-4.000000, -0.500000, 0.081577
-4.000000, 0.000000, 0.080176
-4.000000, 0.500000, 0.080934
-4.000000, 1.000000, 0.083865
-4.000000, 1.500000, 0.088993
-4.000000, 2.000000, 0.096345
-4.000000, 2.500000, 0.105957
-4.000000, 3.000000, 0.117872
-4.000000, 3.500000, 0.132135
-4.000000, 4.000000, 0.148796
-4.000000, 4.500000, 0.167909
-4.000000, 5.000000, 0.189529
-4.000000, 5.500000, 0.213712
-4.000000, 6.000000, 0.240515
-4.000000, 6.500000, 0.269996
-4.000000, 7.000000, 0.302209
-4.000000, 7.500000, 0.337209
-4.000000, 8.000000, 0.375049
-4.000000, 8.500000, 0.415777
-4.000000, 9.000000, 0.459442
-4.000000, 9.500000, 0.506088
-4.000000, 10.000000, 0.555755
-4.000000, 10.500000, 0.608481
-4.000000, 11.000000, 0.664302
-4.000000, 11.500000, 0.723249
-4.000000, 12.000000, 0.78535
-4.000000, 12.500000, 0.850632
-4.000000, 13.000000, 0.919117
-4.000000, 13.500000, 0.990826
-4.000000, 14.000000, 1.065777
-4.000000, 14.500000, 1.143984
-4.000000, 15.000000, 1.225463
-4.000000, 15.500000, 1.310225
-4.000000, 16.000000, 1.398281
-4.000000, 16.500000, 1.48964
-4.000000, 17.000000, 1.584309
-4.000000, 17.500000, 1.682296
-4.000000, 18.000000, 1.783608
-4.000000, 18.500000, 1.88825
-4.000000, 19.000000, 1.996227
-4.000000, 19.500000, 2.107544
-4.000000, 20.000000, 2.222207
-4.000000, 20.500000, 2.34022
-4.000000, 21.000000, 2.461587
-4.000000, 21.500000, 2.586315
-4.000000, 22.000000, 2.714409
-4.000000, 22.500000, 2.845873
-4.000000, 23.000000, 2.980716
-4.000000, 23.500000, 3.118942
-4.000000, 24.000000, 3.26056
-4.000000, 24.500000, 3.405578
-4.000000, 25.000000, 3.554003
-4.000000, 25.500000, 3.705846
-4.000000, 26.000000, 3.861116
-4.000000, 26.500000, 4.019824
-4.000000, 27.000000, 4.181982
-4.000000, 27.500000, 4.347601
-4.000000, 28.000000, 4.516695
-4.000000, 28.500000, 4.689279
-4.000000, 29.000000, 4.865366
-4.000000, 29.500000, 5.044973
-4.000000, 30.000000, 5.228117
-4.000000, 30.500000, 5.414814
-4.000000, 31.000000, 5.605085
-4.000000, 31.500000, 5.798947
-4.000000, 32.000000, 5.996422
-4.000000, 32.500000, 6.19753
-4.000000, 33.000000, 6.402295
-4.000000, 33.500000, 6.61074
-4.000000, 34.000000, 6.822889
-4.000000, 34.500000, 7.038767
-4.000000, 35.000000, 7.258401
-4.000000, 35.500000, 7.481818
-4.000000, 36.000000, 7.709047
-4.000000, 36.500000, 7.940118
-4.000000, 37.000000, 8.175061
-4.000000, 37.500000, 8.413908
-4.000000, 38.000000, 8.656692
-4.000000, 38.500000, 8.903448
-4.000000, 39.000000, 9.15421
-4.000000, 39.500000, 9.409017
-4.000000, 40.000000, 9.667904
-4.000000, 40.500000, 9.930913
-4.000000, 41.000000, 10.198083
-4.000000, 41.500000, 10.469456
-4.000000, 42.000000, 10.745076
-4.000000, 42.500000, 11.024987
-3.500000, -42.500000, 11.049479
-3.500000, -42.000000, 10.769279
-3.500000, -41.500000, 10.493367
-3.500000, -41.000000, 10.221697
-3.500000, -40.500000, 9.954226
-3.500000, -40.000000, 9.690912
-3.500000, -39.500000, 9.431712
-3.500000, -39.000000, 9.176588
-3.500000, -38.500000, 8.925502
-3.500000, -38.000000, 8.678415
-3.500000, -37.500000, 8.435291
-3.500000, -37.000000, 8.196098
-3.500000, -36.500000, 7.960799
-3.500000, -36.000000, 7.729364
-3.500000, -35.500000, 7.501761
-3.500000, -35.000000, 7.27796
-3.500000, -34.500000, 7.057932
-3.500000, -34.000000, 6.841648
-3.500000, -33.500000, 6.629082
-3.500000, -33.000000, 6.420208
-3.500000, -32.500000, 6.215002
-3.500000, -32.000000, 6.013439
-3.500000, -31.500000, 5.815497
-3.500000, -31.000000, 5.621154
-3.500000, -30.500000, 5.430389
-3.500000, -30.000000, 5.243182
-3.500000, -29.500000, 5.059515
-3.500000, -29.000000, 4.87937
-3.500000, -28.500000, 4.702731
-3.500000, -28.000000, 4.52958
-3.500000, -27.500000, 4.359904
-3.500000, -27.000000, 4.193689
-3.500000, -26.500000, 4.030922
-3.500000, -26.000000, 3.87159
-3.500000, -25.500000, 3.715682
-3.500000, -25.000000, 3.56319
-3.500000, -24.500000, 3.414102
-3.500000, -24.000000, 3.268411
-3.500000, -23.500000, 3.12611
-3.500000, -23.000000, 2.987191
-3.500000, -22.500000, 2.851648
-3.500000, -22.000000, 2.719477
-3.500000, -21.500000, 2.590674
-3.500000, -21.000000, 2.465233
-3.500000, -20.500000, 2.343151
-3.500000, -20.000000, 2.224426
-3.500000, -19.500000, 2.109056
-3.500000, -19.000000, 1.997037
-3.500000, -18.500000, 1.888367
-3.500000, -18.000000, 1.783044
-3.500000, -17.500000, 1.681066
-3.500000, -17.000000, 1.582428
-3.500000, -16.500000, 1.487129
-3.500000, -16.000000, 1.395162
-3.500000, -15.500000, 1.306523
-3.500000, -15.000000, 1.221204
-3.500000, -14.500000, 1.139197
-3.500000, -14.000000, 1.06049
-3.500000, -13.500000, 0.985072
-3.500000, -13.000000, 0.912925
-3.500000, -12.500000, 0.844033
-3.500000, -12.000000, 0.778372
-3.500000, -11.500000, 0.715919
-3.500000, -11.000000, 0.656644
-3.500000, -10.500000, 0.600514
-3.500000, -10.000000, 0.547495
-3.500000, -9.500000, 0.497544
-3.500000, -9.000000, 0.450618
-3.500000, -8.500000, 0.406669
-3.500000, -8.000000, 0.365644
-3.500000, -7.500000, 0.327491
-3.500000, -7.000000, 0.29215
-3.500000, -6.500000, 0.259564
-3.500000, -6.000000, 0.229673
-3.500000, -5.500000, 0.202416
-3.500000, -5.000000, 0.177733
-3.500000, -4.500000, 0.155567
-3.500000, -4.000000, 0.135863
-3.500000, -3.500000, 0.118569
-3.500000, -3.000000, 0.10364
-3.500000, -2.500000, 0.091034
-3.500000, -2.000000, 0.080716
-3.500000, -1.500000, 0.072661
-3.500000, -1.000000, 0.066848
-3.500000, -0.500000, 0.063266
-3.500000, 0.000000, 0.06191
-3.500000, 0.500000, 0.062785
-3.500000, 1.000000, 0.065902
-3.500000, 1.500000, 0.071281
-3.500000, 2.000000, 0.078948
-3.500000, 2.500000, 0.088934
-3.500000, 3.000000, 0.101277
-3.500000, 3.500000, 0.116018
-3.500000, 4.000000, 0.133203
-3.500000, 4.500000, 0.15288
-3.500000, 5.000000, 0.175099
-3.500000, 5.500000, 0.199913
-3.500000, 6.000000, 0.227373
-3.500000, 6.500000, 0.257531
-3.500000, 7.000000, 0.290439
-3.500000, 7.500000, 0.326145
-3.500000, 8.000000, 0.364698
-3.500000, 8.500000, 0.406143
-3.500000, 9.000000, 0.450524
-3.500000, 9.500000, 0.497882
-3.500000, 10.000000, 0.548254
-3.500000, 10.500000, 0.601675
-3.500000, 11.000000, 0.658178
-3.500000, 11.500000, 0.717792
-3.500000, 12.000000, 0.780542
-3.500000, 12.500000, 0.846454
-3.500000, 13.000000, 0.915548
-3.500000, 13.500000, 0.987843
-3.500000, 14.000000, 1.063357
-3.500000, 14.500000, 1.142103
-3.500000, 15.000000, 1.224096
-3.500000, 15.500000, 1.309347
-3.500000, 16.000000, 1.397865
-3.500000, 16.500000, 1.48966
-3.500000, 17.000000, 1.58474
-3.500000, 17.500000, 1.683113
-3.500000, 18.000000, 1.784783
-3.500000, 18.500000, 1.889759
-3.500000, 19.000000, 1.998045
-3.500000, 19.500000, 2.109646
-3.500000, 20.000000, 2.224569
-3.500000, 20.500000, 2.342819
-3.500000, 21.000000, 2.4644
-3.500000, 21.500000, 2.58932
-3.500000, 22.000000, 2.717584
-3.500000, 22.500000, 2.849199
-3.500000, 23.000000, 2.984171
-3.500000, 23.500000, 3.122508
-3.500000, 24.000000, 3.264218
-3.500000, 24.500000, 3.409309
-3.500000, 25.000000, 3.557792
-3.500000, 25.500000, 3.709676
-3.500000, 26.000000, 3.864971
-3.500000, 26.500000, 4.023689
-3.500000, 27.000000, 4.185843
-3.500000, 27.500000, 4.351445
-3.500000, 28.000000, 4.520509
-3.500000, 28.500000, 4.69305
-3.500000, 29.000000, 4.869083
-3.500000, 29.500000, 5.048625
-3.500000, 30.000000, 5.231693
-3.500000, 30.500000, 5.418305
-3.500000, 31.000000, 5.608481
-3.500000, 31.500000, 5.802239
-3.500000, 32.000000, 5.999602
-3.500000, 32.500000, 6.200591
-3.500000, 33.000000, 6.40523
-3.500000, 33.500000, 6.61354
-3.500000, 34.000000, 6.825548
-3.500000, 34.500000, 7.04128
-3.500000, 35.000000, 7.260762
-3.500000, 35.500000, 7.484021
-3.500000, 36.000000, 7.711088
-3.500000, 36.500000, 7.941991
-3.500000, 37.000000, 8.176762
-3.500000, 37.500000, 8.415433
-3.500000, 38.000000, 8.658038
-3.500000, 38.500000, 8.90461
-3.500000, 39.000000, 9.155186
-3.500000, 39.500000, 9.409803
-3.500000, 40.000000, 9.668498
-3.500000, 40.500000, 9.931311
-3.500000, 41.000000, 10.198283
-3.500000, 41.500000, 10.469456
-3.500000, 42.000000, 10.744874
-3.500000, 42.500000, 11.024581
-3.000000, -42.500000, 11.050305
-3.000000, -42.000000, 10.770323
-3.000000, -41.500000, 10.494627
-3.000000, -41.000000, 10.223173
-3.000000, -40.500000, 9.955916
-3.000000, -40.000000, 9.692814
-3.000000, -39.500000, 9.433826
-3.000000, -39.000000, 9.178912
-3.000000, -38.500000, 8.928033
-3.000000, -38.000000, 8.681152
-3.000000, -37.500000, 8.438233
-3.000000, -37.000000, 8.19924
-3.000000, -36.500000, 7.96414
-3.000000, -36.000000, 7.7329
-3.000000, -35.500000, 7.505488
-3.000000, -35.000000, 7.281875
-3.000000, -34.500000, 7.06203
-3.000000, -34.000000, 6.845926
-3.000000, -33.500000, 6.633535
-3.000000, -33.000000, 6.424831
-3.000000, -32.500000, 6.219788
-3.000000, -32.000000, 6.018382
-3.000000, -31.500000, 5.82059
-3.000000, -31.000000, 5.62639
-3.000000, -30.500000, 5.435761
-3.000000, -30.000000, 5.248681
-3.000000, -29.500000, 5.065132
-3.000000, -29.000000, 4.885096
-3.000000, -28.500000, 4.708554
-3.000000, -28.000000, 4.53549
-3.000000, -27.500000, 4.365889
-3.000000, -27.000000, 4.199735
-3.000000, -26.500000, 4.037016
-3.000000, -26.000000, 3.877717
-3.000000, -25.500000, 3.721828
-3.000000, -25.000000, 3.569337
-3.000000, -24.500000, 3.420234
-3.000000, -24.000000, 3.274509
-3.000000, -23.500000, 3.132154
-3.000000, -23.000000, 2.993161
-3.000000, -22.500000, 2.857524
-3.000000, -22.000000, 2.725235
-3.000000, -21.500000, 2.596289
-3.000000, -21.000000, 2.470681
-3.000000, -20.500000, 2.348407
-3.000000, -20.000000, 2.229462
-3.000000, -19.500000, 2.113844
-3.000000, -19.000000, 2.001547
-3.000000, -18.500000, 1.89257
-3.000000, -18.000000, 1.786909
-3.000000, -17.500000, 1.684561
-3.000000, -17.000000, 1.585521
-3.000000, -16.500000, 1.489787
-3.000000, -16.000000, 1.397352
-3.000000, -15.500000, 1.308211
-3.000000, -15.000000, 1.222357
-3.000000, -14.500000, 1.139781
-3.000000, -14.000000, 1.060474
-3.000000, -13.500000, 0.984424
-3.000000, -13.000000, 0.911616
-3.000000, -12.500000, 0.842033
-3.000000, -12.000000, 0.775657
-3.000000, -11.500000, 0.712464
-3.000000, -11.000000, 0.652429
-3.000000, -10.500000, 0.595522
-3.000000, -10.000000, 0.541712
-3.000000, -9.500000, 0.490963
-3.000000, -9.000000, 0.443234
-3.000000, -8.500000, 0.398484
-3.000000, -8.000000, 0.356666
-3.000000, -7.500000, 0.317732
-3.000000, -7.000000, 0.281631
-3.000000, -6.500000, 0.24831
-3.000000, -6.000000, 0.217716
-3.000000, -5.500000, 0.189794
-3.000000, -5.000000, 0.16449
-3.000000, -4.500000, 0.141754
-3.000000, -4.000000, 0.121535
-3.000000, -3.500000, 0.103786
-3.000000, -3.000000, 0.088465
-3.000000, -2.500000, 0.075535
-3.000000, -2.000000, 0.064964
-3.000000, -1.500000, 0.056726
-3.000000, -1.000000, 0.050802
-3.000000, -0.500000, 0.047182
-3.000000, 0.000000, 0.04586
-3.000000, 0.500000, 0.046839
-3.000000, 1.000000, 0.050129
-3.000000, 1.500000, 0.055746
-3.000000, 2.000000, 0.063713
-3.000000, 2.500000, 0.074058
-3.000000, 3.000000, 0.086813
-3.000000, 3.500000, 0.102016
-3.000000, 4.000000, 0.119707
-3.000000, 4.500000, 0.139931
-3.000000, 5.000000, 0.162733
-3.000000, 5.500000, 0.188158
-3.000000, 6.000000, 0.216255
-3.000000, 6.500000, 0.24707
-3.000000, 7.000000, 0.280649
-3.000000, 7.500000, 0.317038
-3.000000, 8.000000, 0.356281
-3.000000, 8.500000, 0.398419
-3.000000, 9.000000, 0.443491
-3.000000, 9.500000, 0.491535
-3.000000, 10.000000, 0.542585
-3.000000, 10.500000, 0.596674
-3.000000, 11.000000, 0.65383
-3.000000, 11.500000, 0.714082
-3.000000, 12.000000, 0.777452
-3.000000, 12.500000, 0.843964
-3.000000, 13.000000, 0.913637
-3.000000, 13.500000, 0.986489
-3.000000, 14.000000, 1.062536
-3.000000, 14.500000, 1.141792
-3.000000, 15.000000, 1.224269
-3.000000, 15.500000, 1.309978
-3.000000, 16.000000, 1.39893
-3.000000, 16.500000, 1.491133
-3.000000, 17.000000, 1.586596
-3.000000, 17.500000, 1.685325
-3.000000, 18.000000, 1.787328
-3.000000, 18.500000, 1.892611
-3.000000, 19.000000, 2.001179
-3.000000, 19.500000, 2.11304
-3.000000, 20.000000, 2.228199
-3.000000, 20.500000, 2.346662
-3.000000, 21.000000, 2.468435
-3.000000, 21.500000, 2.593525
-3.000000, 22.000000, 2.721938
-3.000000, 22.500000, 2.853683
-3.000000, 23.000000, 2.988766
-3.000000, 23.500000, 3.127195
-3.000000, 24.000000, 3.26898
-3.000000, 24.500000, 3.41413
-3.000000, 25.000000, 3.562655
-3.000000, 25.500000, 3.714566
-3.000000, 26.000000, 3.869873
-3.000000, 26.500000, 4.02859
-3.000000, 27.000000, 4.190728
-3.000000, 27.500000, 4.356303
-3.000000, 28.000000, 4.525327
-3.000000, 28.500000, 4.697818
-3.000000, 29.000000, 4.873789
-3.000000, 29.500000, 5.05326
-3.000000, 30.000000, 5.236247
-3.000000, 30.500000, 5.422769
-3.000000, 31.000000, 5.612846
-3.000000, 31.500000, 5.806499
-3.000000, 32.000000, 6.003748
-3.000000, 32.500000, 6.204616
-3.000000, 33.000000, 6.409127
-3.000000, 33.500000, 6.617304
-3.000000, 34.000000, 6.829173
-3.000000, 34.500000, 7.04476
-3.000000, 35.000000, 7.264092
-3.000000, 35.500000, 7.487197
-3.000000, 36.000000, 7.714104
-3.000000, 36.500000, 7.944845
-3.000000, 37.000000, 8.179449
-3.000000, 37.500000, 8.41795
-3.000000, 38.000000, 8.660382
-3.000000, 38.500000, 8.906778
-3.000000, 39.000000, 9.157175
-3.000000, 39.500000, 9.41161
-3.000000, 40.000000, 9.670121
-3.000000, 40.500000, 9.932748
-3.000000, 41.000000, 10.199532
-3.000000, 41.500000, 10.470515
-3.000000, 42.000000, 10.745741
-3.000000, 42.500000, 11.025255
-2.500000, -42.500000, 11.052181
-2.500000, -42.000000, 10.7724
-2.500000, -41.500000, 10.496905
-2.500000, -41.000000, 10.225652
-2.500000, -40.500000, 9.958595
-2.500000, -40.000000, 9.695692
-2.500000, -39.500000, 9.436902
-2.500000, -39.000000, 9.182184
-2.500000, -38.500000, 8.931501
-2.500000, -38.000000, 8.684814
-2.500000, -37.500000, 8.442086
-2.500000, -37.000000, 8.203284
-2.500000, -36.500000, 7.968371
-2.500000, -36.000000, 7.737317
-2.500000, -35.500000, 7.510088
-2.500000, -35.000000, 7.286655
-2.500000, -34.500000, 7.066986
-2.500000, -34.000000, 6.851055
-2.500000, -33.500000, 6.638832
-2.500000, -33.000000, 6.430292
-2.500000, -32.500000, 6.225408
-2.500000, -32.000000, 6.024156
-2.500000, -31.500000, 5.826512
-2.500000, -31.000000, 5.632454
-2.500000, -30.500000, 5.441959
-2.500000, -30.000000, 5.255006
-2.500000, -29.500000, 5.071577
-2.500000, -29.000000, 4.891651
-2.500000, -28.500000, 4.71521
-2.500000, -28.000000, 4.542237
-2.500000, -27.500000, 4.372717
-2.500000, -27.000000, 4.206632
-2.500000, -26.500000, 4.04397
-2.500000, -26.000000, 3.884715
-2.500000, -25.500000, 3.728855
-2.500000, -25.000000, 3.576379
-2.500000, -24.500000, 3.427274
-2.500000, -24.000000, 3.281531
-2.500000, -23.500000, 3.13914
-2.500000, -23.000000, 3.000092
-2.500000, -22.500000, 2.86438
-2.500000, -22.000000, 2.731995
-2.500000, -21.500000, 2.60293
-2.500000, -21.000000, 2.477181
-2.500000, -20.500000, 2.354741
-2.500000, -20.000000, 2.235606
-2.500000, -19.500000, 2.119769
-2.500000, -19.000000, 2.007228
-2.500000, -18.500000, 1.897978
-2.500000, -18.000000, 1.792014
-2.500000, -17.500000, 1.689333
-2.500000, -17.000000, 1.589929
-2.500000, -16.500000, 1.493799
-2.500000, -16.000000, 1.400938
-2.500000, -15.500000, 1.311338
-2.500000, -15.000000, 1.224993
-2.500000, -14.500000, 1.141894
-2.500000, -14.000000, 1.062033
-2.500000, -13.500000, 0.985398
-2.500000, -13.000000, 0.911976
-2.500000, -12.500000, 0.841751
-2.500000, -12.000000, 0.774706
-2.500000, -11.500000, 0.710821
-2.500000, -11.000000, 0.650073
-2.500000, -10.500000, 0.592436
-2.500000, -10.000000, 0.537881
-2.500000, -9.500000, 0.486377
-2.500000, -9.000000, 0.437888
-2.500000, -8.500000, 0.392378
-2.500000, -8.000000, 0.349804
-2.500000, -7.500000, 0.310126
-2.500000, -7.000000, 0.273296
-2.500000, -6.500000, 0.239269
-2.500000, -6.000000, 0.207998
-2.500000, -5.500000, 0.179434
-2.500000, -5.000000, 0.153529
-2.500000, -4.500000, 0.130238
-2.500000, -4.000000, 0.109515
-2.500000, -3.500000, 0.091319
-2.500000, -3.000000, 0.075612
-2.500000, -2.500000, 0.062359
-2.500000, -2.000000, 0.051532
-2.500000, -1.500000, 0.043107
-2.500000, -1.000000, 0.037067
-2.500000, -0.500000, 0.033399
-2.500000, 0.000000, 0.0321
-2.500000, 0.500000, 0.03317
-2.500000, 1.000000, 0.036618
-2.500000, 1.500000, 0.042456
-2.500000, 2.000000, 0.050705
-2.500000, 2.500000, 0.061389
-2.500000, 3.000000, 0.074536
-2.500000, 3.500000, 0.09018
-2.500000, 4.000000, 0.108356
-2.500000, 4.500000, 0.129103
-2.500000, 5.000000, 0.152462
-2.500000, 5.500000, 0.178474
-2.500000, 6.000000, 0.207181
-2.500000, 6.500000, 0.238626
-2.500000, 7.000000, 0.27285
-2.500000, 7.500000, 0.309894
-2.500000, 8.000000, 0.349797
-2.500000, 8.500000, 0.392597
-2.500000, 9.000000, 0.43833
-2.500000, 9.500000, 0.487029
-2.500000, 10.000000, 0.538726
-2.500000, 10.500000, 0.59345
-2.500000, 11.000000, 0.651228
