-20.500000, -13.000000, 2.595796
-20.500000, -12.500000, 2.537319
-20.500000, -12.000000, 2.481807
-20.500000, -11.500000, 2.42919
-20.500000, -11.000000, 2.379397
-20.500000, -10.500000, 2.332354
-20.500000, -10.000000, 2.287986
-20.500000, -9.500000, 2.246218
-20.500000, -9.000000, 2.206973
-20.500000, -8.500000, 2.170178
-20.500000, -8.000000, 2.13576
-20.500000, -7.500000, 2.103648
-20.500000, -7.000000, 2.073778
-20.500000, -6.500000, 2.046087
-20.500000, -6.000000, 2.02052
-20.500000, -5.500000, 1.997029
-20.500000, -5.000000, 1.97557
-20.500000, -4.500000, 1.956108
-20.500000, -4.000000, 1.938614
-20.500000, -3.500000, 1.923064
-20.500000, -3.000000, 1.909443
-20.500000, -2.500000, 1.897737
-20.500000, -2.000000, 1.88794
-20.500000, -1.500000, 1.880048
-20.500000, -1.000000, 1.87406
-20.500000, -0.500000, 1.86998
-20.500000, 0.000000, 1.867815
-20.500000, 0.500000, 1.867573
-20.500000, 1.000000, 1.869269
-20.500000, 1.500000, 1.872921
-20.500000, 2.000000, 1.878549
-20.500000, 2.500000, 1.886179
-20.500000, 3.000000, 1.895842
-20.500000, 3.500000, 1.907571
-20.500000, 4.000000, 1.921405
-20.500000, 4.500000, 1.937387
-20.500000, 5.000000, 1.955562
-20.500000, 5.500000, 1.975978
-20.500000, 6.000000, 1.998688
-20.500000, 6.500000, 2.023745
-20.500000, 7.000000, 2.051204
-20.500000, 7.500000, 2.081122
-20.500000, 8.000000, 2.113557
-20.500000, 8.500000, 2.148565
-20.500000, 9.000000, 2.186206
-20.500000, 9.500000, 2.226535
-20.500000, 10.000000, 2.26961
-20.500000, 10.500000, 2.315485
-20.500000, 11.000000, 2.364215
-20.500000, 11.500000, 2.415852
-20.500000, 12.000000, 2.470446
-20.500000, 12.500000, 2.528048
-20.500000, 13.000000, 2.588703
-20.500000, 13.500000, 2.652456
-20.500000, 14.000000, 2.71935
-20.500000, 14.500000, 2.789427
-20.500000, 15.000000, 2.862724
-20.500000, 15.500000, 2.939279
-20.500000, 16.000000, 3.019126
-20.500000, 16.500000, 3.102298
-20.500000, 17.000000, 3.188827
-20.500000, 17.500000, 3.278741
-20.500000, 18.000000, 3.372068
-20.500000, 18.500000, 3.468835
-20.500000, 19.000000, 3.569066
-20.500000, 19.500000, 3.672784
-20.500000, 20.000000, 3.780012
-20.500000, 20.500000, 3.89077
-20.500000, 21.000000, 4.005078
-20.500000, 21.500000, 4.122956
-20.500000, 22.000000, 4.244422
-20.500000, 22.500000, 4.369492
-20.500000, 23.000000, 4.498185
-20.500000, 23.500000, 4.630517
-20.500000, 24.000000, 4.766503
-20.500000, 24.500000, 4.906159
-20.500000, 25.000000, 5.049501
-20.500000, 25.500000, 5.196545
-20.500000, 26.000000, 5.347304
-20.500000, 26.500000, 5.501795
-20.500000, 27.000000, 5.660032
-20.500000, 27.500000, 5.822032
-20.500000, 28.000000, 5.98781
-20.500000, 28.500000, 6.157381
-20.500000, 29.000000, 6.330763
-20.500000, 29.500000, 6.507971
-20.500000, 30.000000, 6.689023
-20.500000, 30.500000, 6.873937
-20.500000, 31.000000, 7.062731
-20.500000, 31.500000, 7.255423
-20.500000, 32.000000, 7.452033
-20.500000, 32.500000, 7.652581
-20.500000, 33.000000, 7.857088
-20.500000, 33.500000, 8.065576
-20.500000, 34.000000, 8.278067
-20.500000, 34.500000, 8.494586
-20.500000, 35.000000, 8.715155
-20.500000, 35.500000, 8.939801
-20.500000, 36.000000, 9.16855
-20.500000, 36.500000, 9.401428
-20.500000, 37.000000, 9.638466
-20.500000, 37.500000, 9.879692
-20.500000, 38.000000, 10.125137
-20.500000, 38.500000, 10.374834
-20.500000, 39.000000, 10.628814
-20.500000, 39.500000, 10.887114
-20.500000, 40.000000, 11.149769
-20.500000, 40.500000, 11.416815
-20.500000, 41.000000, 11.688293
-20.500000, 41.500000, 11.964243
-20.500000, 42.000000, 12.244705
-20.500000, 42.500000, 12.529724
-20.000000, -42.500000, 12.425603
-20.000000, -42.000000, 12.139808
-20.000000, -41.500000, 11.858568
-20.000000, -41.000000, 11.581842
-20.000000, -40.500000, 11.309588
-20.000000, -40.000000, 11.041769
-20.000000, -39.500000, 10.778347
-20.000000, -39.000000, 10.519285
-20.000000, -38.500000, 10.26455
-20.000000, -38.000000, 10.014108
-20.000000, -37.500000, 9.767929
-20.000000, -37.000000, 9.525982
-20.000000, -36.500000, 9.288238
-20.000000, -36.000000, 9.054671
-20.000000, -35.500000, 8.825252
-20.000000, -35.000000, 8.599959
-20.000000, -34.500000, 8.378766
-20.000000, -34.000000, 8.161651
-20.000000, -33.500000, 7.948593
-20.000000, -33.000000, 7.73957
-20.000000, -32.500000, 7.534563
-20.000000, -32.000000, 7.333553
-20.000000, -31.500000, 7.136523
-20.000000, -31.000000, 6.943456
-20.000000, -30.500000, 6.754335
-20.000000, -30.000000, 6.569146
-20.000000, -29.500000, 6.387872
-20.000000, -29.000000, 6.210502
-20.000000, -28.500000, 6.03702
-20.000000, -28.000000, 5.867415
-20.000000, -27.500000, 5.701673
-20.000000, -27.000000, 5.539782
-20.000000, -26.500000, 5.381731
-20.000000, -26.000000, 5.227508
-20.000000, -25.500000, 5.077101
-20.000000, -25.000000, 4.930499
-20.000000, -24.500000, 4.787689
-20.000000, -24.000000, 4.64866
-20.000000, -23.500000, 4.513399
-20.000000, -23.000000, 4.381894
-20.000000, -22.500000, 4.25413
-20.000000, -22.000000, 4.130093
-20.000000, -21.500000, 4.009768
-20.000000, -21.000000, 3.893138
-20.000000, -20.500000, 3.780186
-20.000000, -20.000000, 3.670891
-20.000000, -19.500000, 3.565233
-20.000000, -19.000000, 3.463188
-20.000000, -18.500000, 3.364732
-20.000000, -18.000000, 3.269836
-20.000000, -17.500000, 3.17847
-20.000000, -17.000000, 3.090602
-20.000000, -16.500000, 3.006196
-20.000000, -16.000000, 2.925212
-20.000000, -15.500000, 2.847608
-20.000000, -15.000000, 2.773338
-20.000000, -14.500000, 2.702353
-20.000000, -14.000000, 2.6346
-20.000000, -13.500000, 2.570021
-20.000000, -13.000000, 2.508557
-20.000000, -12.500000, 2.450142
-20.000000, -12.000000, 2.39471
-20.000000, -11.500000, 2.34219
-20.000000, -11.000000, 2.292508
-20.000000, -10.500000, 2.24559
-20.000000, -10.000000, 2.201356
-20.000000, -9.500000, 2.159729
-20.000000, -9.000000, 2.120632
-20.000000, -8.500000, 2.083985
-20.000000, -8.000000, 2.049714
-20.000000, -7.500000, 2.017745
-20.000000, -7.000000, 1.988011
-20.000000, -6.500000, 1.960447
-20.000000, -6.000000, 1.934996
-20.000000, -5.500000, 1.911607
-20.000000, -5.000000, 1.890237
-20.000000, -4.500000, 1.87085
-20.000000, -4.000000, 1.853416
-20.000000, -3.500000, 1.837915
-20.000000, -3.000000, 1.824329
-20.000000, -2.500000, 1.812648
-20.000000, -2.000000, 1.802865
-20.000000, -1.500000, 1.794977
-20.000000, -1.000000, 1.788984
-20.000000, -0.500000, 1.784889
-20.000000, 0.000000, 1.782699
-20.000000, 0.500000, 1.782423
-20.000000, 1.000000, 1.784074
-20.000000, 1.500000, 1.78767
-20.000000, 2.000000, 1.793232
-20.000000, 2.500000, 1.800786
-20.000000, 3.000000, 1.810362
-20.000000, 3.500000, 1.821996
-20.000000, 4.000000, 1.835726
-20.000000, 4.500000, 1.851597
-20.000000, 5.000000, 1.869655
-20.000000, 5.500000, 1.88995
-20.000000, 6.000000, 1.912537
-20.000000, 6.500000, 1.937469
-20.000000, 7.000000, 1.964805
-20.000000, 7.500000, 1.994603
-20.000000, 8.000000, 2.026922
-20.000000, 8.500000, 2.061821
-20.000000, 9.000000, 2.099359
-20.000000, 9.500000, 2.139595
-20.000000, 10.000000, 2.182587
-20.000000, 10.500000, 2.22839
-20.000000, 11.000000, 2.27706
-20.000000, 11.500000, 2.32865
-20.000000, 12.000000, 2.383211
-20.000000, 12.500000, 2.440793
-20.000000, 13.000000, 2.501442
-20.000000, 13.500000, 2.565204
-20.000000, 14.000000, 2.632122
-20.000000, 14.500000, 2.702235
-20.000000, 15.000000, 2.775583
-20.000000, 15.500000, 2.852203
-20.000000, 16.000000, 2.932128
-20.000000, 16.500000, 3.01539
-20.000000, 17.000000, 3.102021
-20.000000, 17.500000, 3.192048
-20.000000, 18.000000, 3.285499
-20.000000, 18.500000, 3.3824
-20.000000, 19.000000, 3.482773
-20.000000, 19.500000, 3.586642
-20.000000, 20.000000, 3.694028
-20.000000, 20.500000, 3.804951
-20.000000, 21.000000, 3.91943
-20.000000, 21.500000, 4.037483
-20.000000, 22.000000, 4.159128
-20.000000, 22.500000, 4.284382
-20.000000, 23.000000, 4.41326
-20.000000, 23.500000, 4.545778
-20.000000, 24.000000, 4.681952
-20.000000, 24.500000, 4.821795
-20.000000, 25.000000, 4.965324
-20.000000, 25.500000, 5.112553
-20.000000, 26.000000, 5.263496
-20.000000, 26.500000, 5.418167
-20.000000, 27.000000, 5.576582
-20.000000, 27.500000, 5.738756
-20.000000, 28.000000, 5.904702
-20.000000, 28.500000, 6.074437
-20.000000, 29.000000, 6.247977
-20.000000, 29.500000, 6.425338
-20.000000, 30.000000, 6.606535
-20.000000, 30.500000, 6.791588
-20.000000, 31.000000, 6.980512
-20.000000, 31.500000, 7.173328
-20.000000, 32.000000, 7.370053
-20.000000, 32.500000, 7.570708
-20.000000, 33.000000, 7.775313
-20.000000, 33.500000, 7.98389
-20.000000, 34.000000, 8.19646
-20.000000, 34.500000, 8.413048
-20.000000, 35.000000, 8.633677
-20.000000, 35.500000, 8.858372
-20.000000, 36.000000, 9.087159
-20.000000, 36.500000, 9.320066
-20.000000, 37.000000, 9.557121
-20.000000, 37.500000, 9.798353
-20.000000, 38.000000, 10.043793
-20.000000, 38.500000, 10.293473
-20.000000, 39.000000, 10.547426
-20.000000, 39.500000, 10.805685
-20.000000, 40.000000, 11.068288
-20.000000, 40.500000, 11.335271
-20.000000, 41.000000, 11.606673
-20.000000, 41.500000, 11.882534
-20.000000, 42.000000, 12.162896
-20.000000, 42.500000, 12.447802
-19.500000, -42.500000, 12.348268
-19.500000, -42.000000, 12.062579
-19.500000, -41.500000, 11.781431
-19.500000, -41.000000, 11.504783
-19.500000, -40.500000, 11.232594
-19.500000, -40.000000, 10.964826
-19.500000, -39.500000, 10.70144
-19.500000, -39.000000, 10.442401
-19.500000, -38.500000, 10.187676
-19.500000, -38.000000, 9.93723
-19.500000, -37.500000, 9.691034
-19.500000, -37.000000, 9.449056
-19.500000, -36.500000, 9.211268
-19.500000, -36.000000, 8.977644
-19.500000, -35.500000, 8.748156
-19.500000, -35.000000, 8.52278
-19.500000, -34.500000, 8.301493
-19.500000, -34.000000, 8.084271
-19.500000, -33.500000, 7.871093
-19.500000, -33.000000, 7.661939
-19.500000, -32.500000, 7.45679
-19.500000, -32.000000, 7.255627
-19.500000, -31.500000, 7.058433
-19.500000, -31.000000, 6.865191
-19.500000, -30.500000, 6.675885
-19.500000, -30.000000, 6.490501
-19.500000, -29.500000, 6.309025
-19.500000, -29.000000, 6.131442
-19.500000, -28.500000, 5.957741
-19.500000, -28.000000, 5.787908
-19.500000, -27.500000, 5.621932
-19.500000, -27.000000, 5.459801
-19.500000, -26.500000, 5.301505
-19.500000, -26.000000, 5.147032
-19.500000, -25.500000, 4.996372
-19.500000, -25.000000, 4.849513
-19.500000, -24.500000, 4.706446
-19.500000, -24.000000, 4.567158
-19.500000, -23.500000, 4.43164
-19.500000, -23.000000, 4.299878
-19.500000, -22.500000, 4.17186
-19.500000, -22.000000, 4.047574
-19.500000, -21.500000, 3.927004
-19.500000, -21.000000, 3.810136
-19.500000, -20.500000, 3.696953
-19.500000, -20.000000, 3.587437
-19.500000, -19.500000, 3.481568
-19.500000, -19.000000, 3.379324
-19.500000, -18.500000, 3.280682
-19.500000, -18.000000, 3.185614
-19.500000, -17.500000, 3.094092
-19.500000, -17.000000, 3.006085
-19.500000, -16.500000, 2.921557
-19.500000, -16.000000, 2.84047
-19.500000, -15.500000, 2.762782
-19.500000, -15.000000, 2.688449
-19.500000, -14.500000, 2.617422
-19.500000, -14.000000, 2.549646
-19.500000, -13.500000, 2.485066
-19.500000, -13.000000, 2.423621
-19.500000, -12.500000, 2.365245
-19.500000, -12.000000, 2.309871
-19.500000, -11.500000, 2.257426
-19.500000, -11.000000, 2.207835
-19.500000, -10.500000, 2.16102
-19.500000, -10.000000, 2.116902
-19.500000, -9.500000, 2.0754
-19.500000, -9.000000, 2.036433
-19.500000, -8.500000, 1.999919
-19.500000, -8.000000, 1.965781
-19.500000, -7.500000, 1.933942
-19.500000, -7.000000, 1.904331
-19.500000, -6.500000, 1.876882
-19.500000, -6.000000, 1.851535
-19.500000, -5.500000, 1.828238
-19.500000, -5.000000, 1.806947
-19.500000, -4.500000, 1.787626
-19.500000, -4.000000, 1.770245
-19.500000, -3.500000, 1.754785
-19.500000, -3.000000, 1.741229
-19.500000, -2.500000, 1.729568
-19.500000, -2.000000, 1.719797
-19.500000, -1.500000, 1.711912
-19.500000, -1.000000, 1.705915
-19.500000, -0.500000, 1.701808
-19.500000, 0.000000, 1.699597
-19.500000, 0.500000, 1.699291
-19.500000, 1.000000, 1.700904
-19.500000, 1.500000, 1.704451
-19.500000, 2.000000, 1.709954
-19.500000, 2.500000, 1.71744
-19.500000, 3.000000, 1.726939
-19.500000, 3.500000, 1.738486
-19.500000, 4.000000, 1.752123
-19.500000, 4.500000, 1.767893
-19.500000, 5.000000, 1.785846
-19.500000, 5.500000, 1.806032
-19.500000, 6.000000, 1.828508
-19.500000, 6.500000, 1.85333
-19.500000, 7.000000, 1.880557
-19.500000, 7.500000, 1.910249
-19.500000, 8.000000, 1.942468
-19.500000, 8.500000, 1.977273
-19.500000, 9.000000, 2.014725
-19.500000, 9.500000, 2.054886
-19.500000, 10.000000, 2.097812
-19.500000, 10.500000, 2.143562
-19.500000, 11.000000, 2.192191
-19.500000, 11.500000, 2.243753
-19.500000, 12.000000, 2.298301
-19.500000, 12.500000, 2.355882
-19.500000, 13.000000, 2.416546
-19.500000, 13.500000, 2.480337
-19.500000, 14.000000, 2.547298
-19.500000, 14.500000, 2.617469
-19.500000, 15.000000, 2.690888
-19.500000, 15.500000, 2.767592
-19.500000, 16.000000, 2.847614
-19.500000, 16.500000, 2.930986
-19.500000, 17.000000, 3.017738
-19.500000, 17.500000, 3.107897
-19.500000, 18.000000, 3.20149
-19.500000, 18.500000, 3.298542
-19.500000, 19.000000, 3.399075
-19.500000, 19.500000, 3.503112
-19.500000, 20.000000, 3.610672
-19.500000, 20.500000, 3.721775
-19.500000, 21.000000, 3.836439
-19.500000, 21.500000, 3.954681
-19.500000, 22.000000, 4.076519
-19.500000, 22.500000, 4.201967
-19.500000, 23.000000, 4.331042
-19.500000, 23.500000, 4.463757
-19.500000, 24.000000, 4.600129
-19.500000, 24.500000, 4.74017
-19.500000, 25.000000, 4.883894
-19.500000, 25.500000, 5.031316
-19.500000, 26.000000, 5.18245
-19.500000, 26.500000, 5.337308
-19.500000, 27.000000, 5.495907
-19.500000, 27.500000, 5.658259
-19.500000, 28.000000, 5.824379
-19.500000, 28.500000, 5.994282
-19.500000, 29.000000, 6.167983
-19.500000, 29.500000, 6.345499
-19.500000, 30.000000, 6.526844
-19.500000, 30.500000, 6.712037
-19.500000, 31.000000, 6.901094
-19.500000, 31.500000, 7.094034
-19.500000, 32.000000, 7.290874
-19.500000, 32.500000, 7.491636
-19.500000, 33.000000, 7.696338
-19.500000, 33.500000, 7.905002
-19.500000, 34.000000, 8.117651
-19.500000, 34.500000, 8.334306
-19.500000, 35.000000, 8.554993
-19.500000, 35.500000, 8.779735
-19.500000, 36.000000, 9.008558
-19.500000, 36.500000, 9.241491
-19.500000, 37.000000, 9.47856
-19.500000, 37.500000, 9.719795
-19.500000, 38.000000, 9.965226
-19.500000, 38.500000, 10.214886
-19.500000, 39.000000, 10.468807
-19.500000, 39.500000, 10.727023
-19.500000, 40.000000, 10.98957
-19.500000, 40.500000, 11.256486
-19.500000, 41.000000, 11.527808
-19.500000, 41.500000, 11.803576
-19.500000, 42.000000, 12.083833
-19.500000, 42.500000, 12.368622
-19.000000, -42.500000, 12.273651
-19.000000, -42.000000, 11.988075
-19.000000, -41.500000, 11.707027
-19.000000, -41.000000, 11.430465
-19.000000, -40.500000, 11.158347
-19.000000, -40.000000, 10.890636
-19.000000, -39.500000, 10.627295
-19.000000, -39.000000, 10.368286
-19.000000, -38.500000, 10.113577
-19.000000, -38.000000, 9.863135
-19.000000, -37.500000, 9.616927
-19.000000, -37.000000, 9.374926
-19.000000, -36.500000, 9.137101
-19.000000, -36.000000, 8.903426
-19.000000, -35.500000, 8.673874
-19.000000, -35.000000, 8.448421
-19.000000, -34.500000, 8.227044
-19.000000, -34.000000, 8.00972
-19.000000, -33.500000, 7.796428
-19.000000, -33.000000, 7.587147
-19.000000, -32.500000, 7.381859
-19.000000, -32.000000, 7.180545
-19.000000, -31.500000, 6.983189
-19.000000, -31.000000, 6.789773
-19.000000, -30.500000, 6.600284
-19.000000, -30.000000, 6.414706
-19.000000, -29.500000, 6.233025
-19.000000, -29.000000, 6.055229
-19.000000, -28.500000, 5.881305
-19.000000, -28.000000, 5.711242
-19.000000, -27.500000, 5.545028
-19.000000, -27.000000, 5.382652
-19.000000, -26.500000, 5.224105
-19.000000, -26.000000, 5.069375
-19.000000, -25.500000, 4.918454
-19.000000, -25.000000, 4.771331
-19.000000, -24.500000, 4.627995
-19.000000, -24.000000, 4.488439
-19.000000, -23.500000, 4.35265
-19.000000, -23.000000, 4.220618
-19.000000, -22.500000, 4.092332
-19.000000, -22.000000, 3.96778
-19.000000, -21.500000, 3.846949
-19.000000, -21.000000, 3.729825
-19.000000, -20.500000, 3.616392
-19.000000, -20.000000, 3.506634
-19.000000, -19.500000, 3.400533
-19.000000, -19.000000, 3.298068
-19.000000, -18.500000, 3.199216
-19.000000, -18.000000, 3.103952
-19.000000, -17.500000, 3.01225
-19.000000, -17.000000, 2.924077
-19.000000, -16.500000, 2.839401
-19.000000, -16.000000, 2.758185
-19.000000, -15.500000, 2.680387
-19.000000, -15.000000, 2.605964
-19.000000, -14.500000, 2.534866
-19.000000, -14.000000, 2.467042
-19.000000, -13.500000, 2.402435
-19.000000, -13.000000, 2.340982
-19.000000, -12.500000, 2.28262
-19.000000, -12.000000, 2.227279
-19.000000, -11.500000, 2.174885
-19.000000, -11.000000, 2.125362
-19.000000, -10.500000, 2.07863
-19.000000, -10.000000, 2.034608
-19.000000, -9.500000, 1.993211
-19.000000, -9.000000, 1.954356
-19.000000, -8.500000, 1.917959
-19.000000, -8.000000, 1.883938
-19.000000, -7.500000, 1.852214
-19.000000, -7.000000, 1.822713
-19.000000, -6.500000, 1.795366
-19.000000, -6.000000, 1.770111
-19.000000, -5.500000, 1.746895
-19.000000, -5.000000, 1.725672
-19.000000, -4.500000, 1.706407
-19.000000, -4.000000, 1.689071
-19.000000, -3.500000, 1.673645
-19.000000, -3.000000, 1.660114
-19.000000, -2.500000, 1.64847
-19.000000, -2.000000, 1.638708
-19.000000, -1.500000, 1.630827
-19.000000, -1.000000, 1.624826
-19.000000, -0.500000, 1.62071
-19.000000, 0.000000, 1.618482
-19.000000, 0.500000, 1.618152
-19.000000, 1.000000, 1.619731
-19.000000, 1.500000, 1.623237
-19.000000, 2.000000, 1.62869
-19.000000, 2.500000, 1.636116
-19.000000, 3.000000, 1.645547
-19.000000, 3.500000, 1.657018
-19.000000, 4.000000, 1.670572
-19.000000, 4.500000, 1.686254
-19.000000, 5.000000, 1.704113
-19.000000, 5.500000, 1.724204
-19.000000, 6.000000, 1.746583
-19.000000, 6.500000, 1.771308
-19.000000, 7.000000, 1.798441
-19.000000, 7.500000, 1.828044
-19.000000, 8.000000, 1.860178
-19.000000, 8.500000, 1.894907
-19.000000, 9.000000, 1.932292
-19.000000, 9.500000, 1.972395
-19.000000, 10.000000, 2.015275
-19.000000, 10.500000, 2.060992
-19.000000, 11.000000, 2.1096
-19.000000, 11.500000, 2.161155
-19.000000, 12.000000, 2.215709
-19.000000, 12.500000, 2.273313
-19.000000, 13.000000, 2.334012
-19.000000, 13.500000, 2.397853
-19.000000, 14.000000, 2.464878
-19.000000, 14.500000, 2.535127
-19.000000, 15.000000, 2.608639
-19.000000, 15.500000, 2.685447
-19.000000, 16.000000, 2.765587
-19.000000, 16.500000, 2.849088
-19.000000, 17.000000, 2.93598
-19.000000, 17.500000, 3.02629
-19.000000, 18.000000, 3.120043
-19.000000, 18.500000, 3.217264
-19.000000, 19.000000, 3.317974
-19.000000, 19.500000, 3.422194
-19.000000, 20.000000, 3.529944
-19.000000, 20.500000, 3.641241
-19.000000, 21.000000, 3.756105
-19.000000, 21.500000, 3.87455
-19.000000, 22.000000, 3.996592
-19.000000, 22.500000, 4.122247
-19.000000, 23.000000, 4.25153
-19.000000, 23.500000, 4.384453
-19.000000, 24.000000, 4.521032
-19.000000, 24.500000, 4.661278
-19.000000, 25.000000, 4.805206
-19.000000, 25.500000, 4.952829
-19.000000, 26.000000, 5.104159
-19.000000, 26.500000, 5.259211
-19.000000, 27.000000, 5.417998
-19.000000, 27.500000, 5.580533
-19.000000, 28.000000, 5.74683
-19.000000, 28.500000, 5.916904
-19.000000, 29.000000, 6.09077
-19.000000, 29.500000, 6.268442
-19.000000, 30.000000, 6.449937
-19.000000, 30.500000, 6.635271
-19.000000, 31.000000, 6.824461
-19.000000, 31.500000, 7.017524
-19.000000, 32.000000, 7.21448
-19.000000, 32.500000, 7.415346
-19.000000, 33.000000, 7.620144
-19.000000, 33.500000, 7.828895
-19.000000, 34.000000, 8.041619
-19.000000, 34.500000, 8.258339
-19.000000, 35.000000, 8.47908
-19.000000, 35.500000, 8.703866
-19.000000, 36.000000, 8.932723
-19.000000, 36.500000, 9.165677
-19.000000, 37.000000, 9.402756
-19.000000, 37.500000, 9.64399
-19.000000, 38.000000, 9.889409
-19.000000, 38.500000, 10.139044
-19.000000, 39.000000, 10.392929
-19.000000, 39.500000, 10.651097
-19.000000, 40.000000, 10.913584
-19.000000, 40.500000, 11.180427
-19.000000, 41.000000, 11.451665
-19.000000, 41.500000, 11.727336
-19.000000, 42.000000, 12.007484
-19.000000, 42.500000, 12.29215
-18.500000, -42.500000, 12.201713
-18.500000, -42.000000, 11.916259
-18.500000, -41.500000, 11.635318
-18.500000, -41.000000, 11.358849
-18.500000, -40.500000, 11.086811
-18.500000, -40.000000, 10.819166
-18.500000, -39.500000, 10.555876
-18.500000, -39.000000, 10.296906
-18.500000, -38.500000, 10.042221
-18.500000, -38.000000, 9.79179
-18.500000, -37.500000, 9.545579
-18.500000, -37.000000, 9.303561
-18.500000, -36.500000, 9.065706
-18.500000, -36.000000, 8.831987
-18.500000, -35.500000, 8.602379
-18.500000, -35.000000, 8.376856
-18.500000, -34.500000, 8.155395
-18.500000, -34.000000, 7.937974
-18.500000, -33.500000, 7.724572
-18.500000, -33.000000, 7.51517
-18.500000, -32.500000, 7.309747
-18.500000, -32.000000, 7.108287
-18.500000, -31.500000, 6.910772
-18.500000, -31.000000, 6.717186
-18.500000, -30.500000, 6.527515
-18.500000, -30.000000, 6.341744
-18.500000, -29.500000, 6.15986
-18.500000, -29.000000, 5.981851
-18.500000, -28.500000, 5.807704
-18.500000, -28.000000, 5.637409
-18.500000, -27.500000, 5.470954
-18.500000, -27.000000, 5.30833
-18.500000, -26.500000, 5.149527
-18.500000, -26.000000, 4.994535
-18.500000, -25.500000, 4.843345
-18.500000, -25.000000, 4.695949
-18.500000, -24.500000, 4.552337
-18.500000, -24.000000, 4.412501
-18.500000, -23.500000, 4.27643
-18.500000, -23.000000, 4.144116
-18.500000, -22.500000, 4.015548
-18.500000, -22.000000, 3.890716
-18.500000, -21.500000, 3.769607
-18.500000, -21.000000, 3.652209
-18.500000, -20.500000, 3.538508
-18.500000, -20.000000, 3.428489
-18.500000, -19.500000, 3.322135
-18.500000, -19.000000, 3.219426
-18.500000, -18.500000, 3.120341
-18.500000, -18.000000, 3.024858
-18.500000, -17.500000, 2.932949
-18.500000, -17.000000, 2.844585
-18.500000, -16.500000, 2.759735
-18.500000, -16.000000, 2.678362
-18.500000, -15.500000, 2.600426
-18.500000, -15.000000, 2.525885
-18.500000, -14.500000, 2.45469
-18.500000, -14.000000, 2.386788
-18.500000, -13.500000, 2.322125
-18.500000, -13.000000, 2.260638
-18.500000, -12.500000, 2.202262
-18.500000, -12.000000, 2.146927
-18.500000, -11.500000, 2.094559
-18.500000, -11.000000, 2.045079
-18.500000, -10.500000, 1.998406
-18.500000, -10.000000, 1.954457
-18.500000, -9.500000, 1.913144
-18.500000, -9.000000, 1.874382
-18.500000, -8.500000, 1.838083
-18.500000, -8.000000, 1.804162
-18.500000, -7.500000, 1.772537
-18.500000, -7.000000, 1.743131
-18.500000, -6.500000, 1.715872
-18.500000, -6.000000, 1.690698
-18.500000, -5.500000, 1.667551
-18.500000, -5.000000, 1.646387
-18.500000, -4.500000, 1.627169
-18.500000, -4.000000, 1.60987
-18.500000, -3.500000, 1.594471
-18.500000, -3.000000, 1.580959
-18.500000, -2.500000, 1.569329
-18.500000, -2.000000, 1.559575
-18.500000, -1.500000, 1.551697
-18.500000, -1.000000, 1.545694
-18.500000, -0.500000, 1.541571
-18.500000, 0.000000, 1.53933
-18.500000, 0.500000, 1.538981
-18.500000, 1.000000, 1.540534
-18.500000, 1.500000, 1.544005
-18.500000, 2.000000, 1.549416
-18.500000, 2.500000, 1.556791
-18.500000, 3.000000, 1.566164
-18.500000, 3.500000, 1.57757
-18.500000, 4.000000, 1.591052
-18.500000, 4.500000, 1.606657
-18.500000, 5.000000, 1.624436
-18.500000, 5.500000, 1.644445
-18.500000, 6.000000, 1.666742
-18.500000, 6.500000, 1.691387
-18.500000, 7.000000, 1.718442
-18.500000, 7.500000, 1.747973
-18.500000, 8.000000, 1.780041
-18.500000, 8.500000, 1.814712
-18.500000, 9.000000, 1.85205
-18.500000, 9.500000, 1.892115
-18.500000, 10.000000, 1.93497
-18.500000, 10.500000, 1.980673
-18.500000, 11.000000, 2.029282
-18.500000, 11.500000, 2.080852
-18.500000, 12.000000, 2.135435
-18.500000, 12.500000, 2.193081
-18.500000, 13.000000, 2.253838
-18.500000, 13.500000, 2.317751
-18.500000, 14.000000, 2.384862
-18.500000, 14.500000, 2.455212
-18.500000, 15.000000, 2.528836
-18.500000, 15.500000, 2.605771
-18.500000, 16.000000, 2.686048
-18.500000, 16.500000, 2.769698
-18.500000, 17.000000, 2.85675
-18.500000, 17.500000, 2.947229
-18.500000, 18.000000, 3.041161
-18.500000, 18.500000, 3.138568
-18.500000, 19.000000, 3.239472
-18.500000, 19.500000, 3.343891
-18.500000, 20.000000, 3.451846
-18.500000, 20.500000, 3.563353
-18.500000, 21.000000, 3.678429
-18.500000, 21.500000, 3.797089
-18.500000, 22.000000, 3.919349
-18.500000, 22.500000, 4.045222
-18.500000, 23.000000, 4.174722
-18.500000, 23.500000, 4.307863
-18.500000, 24.000000, 4.444657
-18.500000, 24.500000, 4.585117
-18.500000, 25.000000, 4.729255
-18.500000, 25.500000, 4.877085
-18.500000, 26.000000, 5.028618
-18.500000, 26.500000, 5.183868
-18.500000, 27.000000, 5.342847
-18.500000, 27.500000, 5.505568
-18.500000, 28.000000, 5.672046
-18.500000, 28.500000, 5.842293
-18.500000, 29.000000, 6.016324
-18.500000, 29.500000, 6.194154
-18.500000, 30.000000, 6.375798
-18.500000, 30.500000, 6.561273
-18.500000, 31.000000, 6.750595
-18.500000, 31.500000, 6.943781
-18.500000, 32.000000, 7.14085
-18.500000, 32.500000, 7.34182
-18.500000, 33.000000, 7.546711
-18.500000, 33.500000, 7.755545
-18.500000, 34.000000, 7.968341
-18.500000, 34.500000, 8.185124
-18.500000, 35.000000, 8.405916
-18.500000, 35.500000, 8.630741
-18.500000, 36.000000, 8.859627
-18.500000, 36.500000, 9.092598
-18.500000, 37.000000, 9.329683
-18.500000, 37.500000, 9.570912
-18.500000, 38.000000, 9.816313
-18.500000, 38.500000, 10.065919
-18.500000, 39.000000, 10.319762
-18.500000, 39.500000, 10.577877
-18.500000, 40.000000, 10.840299
-18.500000, 40.500000, 11.107064
-18.500000, 41.000000, 11.378212
-18.500000, 41.500000, 11.653782
-18.500000, 42.000000, 11.933815
-18.500000, 42.500000, 12.218354
-18.000000, -42.500000, 12.132415
-18.000000, -42.000000, 11.84709
-18.000000, -41.500000, 11.566265
-18.000000, -41.000000, 11.289898
-18.000000, -40.500000, 11.017949
-18.000000, -40.000000, 10.750378
-18.000000, -39.500000, 10.487149
-18.000000, -39.000000, 10.228225
-18.000000, -38.500000, 9.973573
-18.000000, -38.000000, 9.723161
-18.000000, -37.500000, 9.476956
-18.000000, -37.000000, 9.23493
-18.000000, -36.500000, 8.997053
-18.000000, -36.000000, 8.763298
-18.000000, -35.500000, 8.53364
-18.000000, -35.000000, 8.308054
-18.000000, -34.500000, 8.086517
-18.000000, -34.000000, 7.869007
-18.000000, -33.500000, 7.655503
-18.000000, -33.000000, 7.445984
-18.000000, -32.500000, 7.240433
-18.000000, -32.000000, 7.038831
-18.000000, -31.500000, 6.841161
-18.000000, -31.000000, 6.64741
-18.000000, -30.500000, 6.45756
-18.000000, -30.000000, 6.2716
-18.000000, -29.500000, 6.089515
-18.000000, -29.000000, 5.911293
-18.000000, -28.500000, 5.736924
-18.000000, -28.000000, 5.566396
-18.000000, -27.500000, 5.399699
-18.000000, -27.000000, 5.236824
-18.000000, -26.500000, 5.077762
-18.000000, -26.000000, 4.922504
-18.000000, -25.500000, 4.771041
-18.000000, -25.000000, 4.623366
-18.000000, -24.500000, 4.47947
-18.000000, -24.000000, 4.339345
-18.000000, -23.500000, 4.202982
-18.000000, -23.000000, 4.070375
-18.000000, -22.500000, 3.941512
-18.000000, -22.000000, 3.816385
-18.000000, -21.500000, 3.694983
-18.000000, -21.000000, 3.577295
-18.000000, -20.500000, 3.463308
-18.000000, -20.000000, 3.353008
-18.000000, -19.500000, 3.24638
-18.000000, -19.000000, 3.143406
-18.000000, -18.500000, 3.044066
-18.000000, -18.000000, 2.948338
-18.000000, -17.500000, 2.856198
-18.000000, -17.000000, 2.767617
-18.000000, -16.500000, 2.682565
-18.000000, -16.000000, 2.601008
-18.000000, -15.500000, 2.522906
-18.000000, -15.000000, 2.448217
-18.000000, -14.500000, 2.376894
-18.000000, -14.000000, 2.308887
-18.000000, -13.500000, 2.244138
-18.000000, -13.000000, 2.182587
-18.000000, -12.500000, 2.124168
-18.000000, -12.000000, 2.068811
-18.000000, -11.500000, 2.016441
-18.000000, -11.000000, 1.966977
-18.000000, -10.500000, 1.920338
-18.000000, -10.000000, 1.876437
-18.000000, -9.500000, 1.835185
-18.000000, -9.000000, 1.796494
-18.000000, -8.500000, 1.760272
-18.000000, -8.000000, 1.726433
-18.000000, -7.500000, 1.69489
-18.000000, -7.000000, 1.665564
-18.000000, -6.500000, 1.63838
-18.000000, -6.000000, 1.613272
-18.000000, -5.500000, 1.590184
-18.000000, -5.000000, 1.569068
-18.000000, -4.500000, 1.549888
-18.000000, -4.000000, 1.532619
-18.000000, -3.500000, 1.517241
-18.000000, -3.000000, 1.503745
-18.000000, -2.500000, 1.492125
-18.000000, -2.000000, 1.482378
-18.000000, -1.500000, 1.474503
-18.000000, -1.000000, 1.4685
-18.000000, -0.500000, 1.464372
-18.000000, 0.000000, 1.462123
-18.000000, 0.500000, 1.461759
-18.000000, 1.000000, 1.463292
-18.000000, 1.500000, 1.466736
-18.000000, 2.000000, 1.472112
-18.000000, 2.500000, 1.479446
-18.000000, 3.000000, 1.48877
-18.000000, 3.500000, 1.500121
-18.000000, 4.000000, 1.513544
-18.000000, 4.500000, 1.529085
-18.000000, 5.000000, 1.546798
-18.000000, 5.500000, 1.56674
-18.000000, 6.000000, 1.58897
-18.000000, 6.500000, 1.61355
-18.000000, 7.000000, 1.640546
-18.000000, 7.500000, 1.670023
-18.000000, 8.000000, 1.702045
-18.000000, 8.500000, 1.736678
-18.000000, 9.000000, 1.773988
-18.000000, 9.500000, 1.814038
-18.000000, 10.000000, 1.856889
-18.000000, 10.500000, 1.902601
-18.000000, 11.000000, 1.951233
-18.000000, 11.500000, 2.00284
-18.000000, 12.000000, 2.057475
-18.000000, 12.500000, 2.115187
-18.000000, 13.000000, 2.176025
-18.000000, 13.500000, 2.240033
-18.000000, 14.000000, 2.307252
-18.000000, 14.500000, 2.377724
-18.000000, 15.000000, 2.451483
-18.000000, 15.500000, 2.528564
-18.000000, 16.000000, 2.609
-18.000000, 16.500000, 2.69282
-18.000000, 17.000000, 2.780051
-18.000000, 17.500000, 2.870719
-18.000000, 18.000000, 2.964847
-18.000000, 18.500000, 3.062457
-18.000000, 19.000000, 3.163571
-18.000000, 19.500000, 3.268205
-18.000000, 20.000000, 3.37638
-18.000000, 20.500000, 3.48811
-18.000000, 21.000000, 3.603411
-18.000000, 21.500000, 3.722299
-18.000000, 22.000000, 3.844787
-18.000000, 22.500000, 3.970888
-18.000000, 23.000000, 4.100616
-18.000000, 23.500000, 4.233982
-18.000000, 24.000000, 4.371
-18.000000, 24.500000, 4.51168
-18.000000, 25.000000, 4.656035
-18.000000, 25.500000, 4.804077
-18.000000, 26.000000, 4.955818
-18.000000, 26.500000, 5.111269
-18.000000, 27.000000, 5.270444
-18.000000, 27.500000, 5.433354
-18.000000, 28.000000, 5.600013
-18.000000, 28.500000, 5.770434
-18.000000, 29.000000, 5.944631
-18.000000, 29.500000, 6.122619
-18.000000, 30.000000, 6.304412
-18.000000, 30.500000, 6.490027
-18.000000, 31.000000, 6.679479
-18.000000, 31.500000, 6.872786
-18.000000, 32.000000, 7.069965
-18.000000, 32.500000, 7.271036
-18.000000, 33.000000, 7.476017
-18.000000, 33.500000, 7.68493
-18.000000, 34.000000, 7.897795
-18.000000, 34.500000, 8.114635
-18.000000, 35.000000, 8.335473
-18.000000, 35.500000, 8.560334
-18.000000, 36.000000, 8.789243
-18.000000, 36.500000, 9.022227
-18.000000, 37.000000, 9.259312
-18.000000, 37.500000, 9.500529
-18.000000, 38.000000, 9.745908
-18.000000, 38.500000, 9.995479
-18.000000, 39.000000, 10.249275
-18.000000, 39.500000, 10.507331
-18.000000, 40.000000, 10.769682
-18.000000, 40.500000, 11.036364
-18.000000, 41.000000, 11.307416
-18.000000, 41.500000, 11.582878
-18.000000, 42.000000, 11.862791
-18.000000, 42.500000, 12.147198
-17.500000, -42.500000, 12.065714
-17.500000, -42.000000, 11.780528
-17.500000, -41.500000, 11.499828
-17.500000, -41.000000, 11.223572
-17.500000, -40.500000, 10.95172
-17.500000, -40.000000, 10.684232
-17.500000, -39.500000, 10.421073
-17.500000, -39.000000, 10.162206
-17.500000, -38.500000, 9.907596
-17.500000, -38.000000, 9.657212
-17.500000, -37.500000, 9.411022
-17.500000, -37.000000, 9.168997
-17.500000, -36.500000, 8.931107
-17.500000, -36.000000, 8.697325
-17.500000, -35.500000, 8.467627
-17.500000, -35.000000, 8.241987
-17.500000, -34.500000, 8.020382
-17.500000, -34.000000, 7.80279
-17.500000, -33.500000, 7.58919
-17.500000, -33.000000, 7.379563
-17.500000, -32.500000, 7.17389
-17.500000, -32.000000, 6.972153
-17.500000, -31.500000, 6.774336
-17.500000, -31.000000, 6.580423
-17.500000, -30.500000, 6.3904
-17.500000, -30.000000, 6.204253
-17.500000, -29.500000, 6.021971
-17.500000, -29.000000, 5.84354
-17.500000, -28.500000, 5.66895
-17.500000, -28.000000, 5.498191
-17.500000, -27.500000, 5.331252
-17.500000, -27.000000, 5.168126
-17.500000, -26.500000, 5.008803
-17.500000, -26.000000, 4.853275
-17.500000, -25.500000, 4.701535
-17.500000, -25.000000, 4.553576
-17.500000, -24.500000, 4.409389
-17.500000, -24.000000, 4.268968
-17.500000, -23.500000, 4.132306
-17.500000, -23.000000, 3.999394
-17.500000, -22.500000, 3.870225
-17.500000, -22.000000, 3.744791
-17.500000, -21.500000, 3.623082
-17.500000, -21.000000, 3.505087
-17.500000, -20.500000, 3.390797
-17.500000, -20.000000, 3.280198
-17.500000, -19.500000, 3.173276
-17.500000, -19.000000, 3.070016
-17.500000, -18.500000, 2.970398
-17.500000, -18.000000, 2.874402
-17.500000, -17.500000, 2.782005
-17.500000, -17.000000, 2.693181
-17.500000, -16.500000, 2.607901
-17.500000, -16.000000, 2.52613
-17.500000, -15.500000, 2.447833
-17.500000, -15.000000, 2.372967
-17.500000, -14.500000, 2.301486
-17.500000, -14.000000, 2.233341
-17.500000, -13.500000, 2.168476
-17.500000, -13.000000, 2.10683
-17.500000, -12.500000, 2.048338
-17.500000, -12.000000, 1.992929
-17.500000, -11.500000, 1.940526
-17.500000, -11.000000, 1.891051
-17.500000, -10.500000, 1.844417
-17.500000, -10.000000, 1.800538
-17.500000, -9.500000, 1.759322
-17.500000, -9.000000, 1.720678
-17.500000, -8.500000, 1.684513
-17.500000, -8.000000, 1.650735
-17.500000, -7.500000, 1.619256
-17.500000, -7.000000, 1.589993
-17.500000, -6.500000, 1.562869
-17.500000, -6.000000, 1.537816
-17.500000, -5.500000, 1.514774
-17.500000, -5.000000, 1.493697
-17.500000, -4.500000, 1.474548
-17.500000, -4.000000, 1.457301
-17.500000, -3.500000, 1.44194
-17.500000, -3.000000, 1.428456
-17.500000, -2.500000, 1.416844
-17.500000, -2.000000, 1.407103
-17.500000, -1.500000, 1.399231
-17.500000, -1.000000, 1.39323
-17.500000, -0.500000, 1.3891
-17.500000, 0.000000, 1.386846
-17.500000, 0.500000, 1.386472
-17.500000, 1.000000, 1.387989
-17.500000, 1.500000, 1.391412
-17.500000, 2.000000, 1.396761
-17.500000, 2.500000, 1.404063
-17.500000, 3.000000, 1.413348
-17.500000, 3.500000, 1.424656
-17.500000, 4.000000, 1.43803
-17.500000, 4.500000, 1.453521
-17.500000, 5.000000, 1.471183
-17.500000, 5.500000, 1.491072
-17.500000, 6.000000, 1.513253
-17.500000, 6.500000, 1.537787
-17.500000, 7.000000, 1.564742
-17.500000, 7.500000, 1.594184
-17.500000, 8.000000, 1.62618
-17.500000, 8.500000, 1.660797
-17.500000, 9.000000, 1.698102
-17.500000, 9.500000, 1.738158
-17.500000, 10.000000, 1.781028
-17.500000, 10.500000, 1.826773
-17.500000, 11.000000, 1.875452
-17.500000, 11.500000, 1.92712
-17.500000, 12.000000, 1.98183
-17.500000, 12.500000, 2.039632
-17.500000, 13.000000, 2.100574
-17.500000, 13.500000, 2.1647
-17.500000, 14.000000, 2.232051
-17.500000, 14.500000, 2.302667
-17.500000, 15.000000, 2.376583
-17.500000, 15.500000, 2.453833
-17.500000, 16.000000, 2.534448
-17.500000, 16.500000, 2.618457
-17.500000, 17.000000, 2.705887
-17.500000, 17.500000, 2.796761
-17.500000, 18.000000, 2.891103
-17.500000, 18.500000, 2.988934
-17.500000, 19.000000, 3.090273
-17.500000, 19.500000, 3.195138
-17.500000, 20.000000, 3.303546
-17.500000, 20.500000, 3.415513
-17.500000, 21.000000, 3.531052
-17.500000, 21.500000, 3.650179
-17.500000, 22.000000, 3.772905
-17.500000, 22.500000, 3.899244
-17.500000, 23.000000, 4.029208
-17.500000, 23.500000, 4.162808
-17.500000, 24.000000, 4.300055
-17.500000, 24.500000, 4.440962
-17.500000, 25.000000, 4.585539
-17.500000, 25.500000, 4.733797
-17.500000, 26.000000, 4.885748
-17.500000, 26.500000, 5.041404
-17.500000, 27.000000, 5.200776
-17.500000, 27.500000, 5.363877
-17.500000, 28.000000, 5.530718
-17.500000, 28.500000, 5.701313
-17.500000, 29.000000, 5.875676
-17.500000, 29.500000, 6.05382
-17.500000, 30.000000, 6.235761
-17.500000, 30.500000, 6.421513
-17.500000, 31.000000, 6.611093
-17.500000, 31.500000, 6.804517
-17.500000, 32.000000, 7.001804
-17.500000, 32.500000, 7.202971
-17.500000, 33.000000, 7.408038
-17.500000, 33.500000, 7.617026
-17.500000, 34.000000, 7.829954
-17.500000, 34.500000, 8.046847
-17.500000, 35.000000, 8.267726
-17.500000, 35.500000, 8.492617
-17.500000, 36.000000, 8.721543
-17.500000, 36.500000, 8.954533
-17.500000, 37.000000, 9.191613
-17.500000, 37.500000, 9.432813
-17.500000, 38.000000, 9.678162
-17.500000, 38.500000, 9.927692
-17.500000, 39.000000, 10.181435
-17.500000, 39.500000, 10.439425
-17.500000, 40.000000, 10.701699
-17.500000, 40.500000, 10.968291
-17.500000, 41.000000, 11.239242
-17.500000, 41.500000, 11.514589
-17.500000, 42.000000, 11.794376
-17.500000, 42.500000, 12.078644
-17.000000, -42.500000, 12.001569
-17.000000, -42.000000, 11.71653
-17.000000, -41.500000, 11.435964
-17.000000, -41.000000, 11.159829
-17.000000, -40.500000, 10.888084
-17.000000, -40.000000, 10.62069
-17.000000, -39.500000, 10.35761
-17.000000, -39.000000, 10.098809
-17.000000, -38.500000, 9.844252
-17.000000, -38.000000, 9.593906
-17.000000, -37.500000, 9.347741
-17.000000, -37.000000, 9.105726
-17.000000, -36.500000, 8.867833
-17.000000, -36.000000, 8.634034
-17.000000, -35.500000, 8.404305
-17.000000, -35.000000, 8.17862
-17.000000, -34.500000, 7.956957
-17.000000, -34.000000, 7.739292
-17.000000, -33.500000, 7.525606
-17.000000, -33.000000, 7.315878
-17.000000, -32.500000, 7.110091
-17.000000, -32.000000, 6.908227
-17.000000, -31.500000, 6.710268
-17.000000, -31.000000, 6.516201
-17.000000, -30.500000, 6.326011
-17.000000, -30.000000, 6.139684
-17.000000, -29.500000, 5.957209
-17.000000, -29.000000, 5.778573
-17.000000, -28.500000, 5.603766
-17.000000, -28.000000, 5.432778
-17.000000, -27.500000, 5.265599
-17.000000, -27.000000, 5.102222
-17.000000, -26.500000, 4.942638
-17.000000, -26.000000, 4.78684
-17.000000, -25.500000, 4.63482
-17.000000, -25.000000, 4.486573
-17.000000, -24.500000, 4.342091
-17.000000, -24.000000, 4.201368
-17.000000, -23.500000, 4.064398
-17.000000, -23.000000, 3.931173
-17.000000, -22.500000, 3.801688
-17.000000, -22.000000, 3.675935
-17.000000, -21.500000, 3.553906
-17.000000, -21.000000, 3.435591
-17.000000, -20.500000, 3.320982
-17.000000, -20.000000, 3.210067
-17.000000, -19.500000, 3.102832
-17.000000, -19.000000, 2.999264
-17.000000, -18.500000, 2.899346
-17.000000, -18.000000, 2.803059
-17.000000, -17.500000, 2.710381
-17.000000, -17.000000, 2.621288
-17.000000, -16.500000, 2.535751
-17.000000, -16.000000, 2.453739
-17.000000, -15.500000, 2.375216
-17.000000, -15.000000, 2.300142
-17.000000, -14.500000, 2.228473
-17.000000, -14.000000, 2.160159
-17.000000, -13.500000, 2.095146
-17.000000, -13.000000, 2.033373
-17.000000, -12.500000, 1.974774
-17.000000, -12.000000, 1.91928
-17.000000, -11.500000, 1.866815
-17.000000, -11.000000, 1.817296
-17.000000, -10.500000, 1.770639
-17.000000, -10.000000, 1.726753
-17.000000, -9.500000, 1.685546
-17.000000, -9.000000, 1.646924
-17.000000, -8.500000, 1.610791
-17.000000, -8.000000, 1.577054
-17.000000, -7.500000, 1.54562
-17.000000, -7.000000, 1.516403
-17.000000, -6.500000, 1.489324
-17.000000, -6.000000, 1.464312
-17.000000, -5.500000, 1.441307
-17.000000, -5.000000, 1.42026
-17.000000, -4.500000, 1.401134
-17.000000, -4.000000, 1.383905
-17.000000, -3.500000, 1.368557
-17.000000, -3.000000, 1.355082
-17.000000, -2.500000, 1.343477
-17.000000, -2.000000, 1.333741
-17.000000, -1.500000, 1.325874
-17.000000, -1.000000, 1.319875
-17.000000, -0.500000, 1.315745
-17.000000, 0.000000, 1.313487
-17.000000, 0.500000, 1.313107
-17.000000, 1.000000, 1.314614
-17.000000, 1.500000, 1.318022
-17.000000, 2.000000, 1.323351
-17.000000, 2.500000, 1.330628
-17.000000, 3.000000, 1.339884
-17.000000, 3.500000, 1.351159
-17.000000, 4.000000, 1.364499
-17.000000, 4.500000, 1.379953
-17.000000, 5.000000, 1.397577
-17.000000, 5.500000, 1.417432
-17.000000, 6.000000, 1.43958
-17.000000, 6.500000, 1.464087
-17.000000, 7.000000, 1.49102
-17.000000, 7.500000, 1.520449
-17.000000, 8.000000, 1.552441
-17.000000, 8.500000, 1.587064
-17.000000, 9.000000, 1.624386
-17.000000, 9.500000, 1.664472
-17.000000, 10.000000, 1.707385
-17.000000, 10.500000, 1.753188
-17.000000, 11.000000, 1.801938
-17.000000, 11.500000, 1.853692
-17.000000, 12.000000, 1.908502
-17.000000, 12.500000, 1.966418
-17.000000, 13.000000, 2.027488
-17.000000, 13.500000, 2.091756
-17.000000, 14.000000, 2.159262
-17.000000, 14.500000, 2.230045
-17.000000, 15.000000, 2.30414
-17.000000, 15.500000, 2.38158
-17.000000, 16.000000, 2.462396
-17.000000, 16.500000, 2.546614
-17.000000, 17.000000, 2.634261
-17.000000, 17.500000, 2.725361
-17.000000, 18.000000, 2.819934
-17.000000, 18.500000, 2.918002
-17.000000, 19.000000, 3.019582
-17.000000, 19.500000, 3.124692
-17.000000, 20.000000, 3.233347
-17.000000, 20.500000, 3.345562
-17.000000, 21.000000, 3.461351
-17.000000, 21.500000, 3.580726
-17.000000, 22.000000, 3.703701
-17.000000, 22.500000, 3.830286
-17.000000, 23.000000, 3.960493
-17.000000, 23.500000, 4.094333
-17.000000, 24.000000, 4.231817
-17.000000, 24.500000, 4.372954
-17.000000, 25.000000, 4.517757
-17.000000, 25.500000, 4.666235
-17.000000, 26.000000, 4.818399
-17.000000, 26.500000, 4.974261
-17.000000, 27.000000, 5.133831
-17.000000, 27.500000, 5.297122
-17.000000, 28.000000, 5.464145
-17.000000, 28.500000, 5.634914
-17.000000, 29.000000, 5.80944
-17.000000, 29.500000, 5.987739
-17.000000, 30.000000, 6.169824
-17.000000, 30.500000, 6.35571
-17.000000, 31.000000, 6.545414
-17.000000, 31.500000, 6.738952
-17.000000, 32.000000, 6.936341
-17.000000, 32.500000, 7.1376
-17.000000, 33.000000, 7.342748
-17.000000, 33.500000, 7.551805
-17.000000, 34.000000, 7.764792
-17.000000, 34.500000, 7.981731
-17.000000, 35.000000, 8.202645
-17.000000, 35.500000, 8.427559
-17.000000, 36.000000, 8.656497
-17.000000, 36.500000, 8.889486
-17.000000, 37.000000, 9.126554
-17.000000, 37.500000, 9.36773
-17.000000, 38.000000, 9.613043
-17.000000, 38.500000, 9.862524
-17.000000, 39.000000, 10.116207
-17.000000, 39.500000, 10.374126
-17.000000, 40.000000, 10.636314
-17.000000, 40.500000, 10.902811
-17.000000, 41.000000, 11.173652
-17.000000, 41.500000, 11.448879
-17.000000, 42.000000, 11.728533
-17.000000, 42.500000, 12.012656
-16.500000, -42.500000, 11.939935
-16.500000, -42.000000, 11.655053
-16.500000, -41.500000, 11.374631
-16.500000, -41.000000, 11.098626
-16.500000, -40.500000, 10.826998
-16.500000, -40.000000, 10.559708
-16.500000, -39.500000, 10.296718
-16.500000, -39.000000, 10.037993
-16.500000, -38.500000, 9.783499
-16.500000, -38.000000, 9.533202
-16.500000, -37.500000, 9.287072
-16.500000, -37.000000, 9.045079
-16.500000, -36.500000, 8.807193
-16.500000, -36.000000, 8.573388
-16.500000, -35.500000, 8.343639
-16.500000, -35.000000, 8.117919
-16.500000, -34.500000, 7.896207
-16.500000, -34.000000, 7.67848
-16.500000, -33.500000, 7.464717
-16.500000, -33.000000, 7.254899
-16.500000, -32.500000, 7.049006
-16.500000, -32.000000, 6.847023
-16.500000, -31.500000, 6.648932
-16.500000, -31.000000, 6.454719
-16.500000, -30.500000, 6.264369
-16.500000, -30.000000, 6.077869
-16.500000, -29.500000, 5.895207
-16.500000, -29.000000, 5.716371
-16.500000, -28.500000, 5.541351
-16.500000, -28.000000, 5.370138
-16.500000, -27.500000, 5.202723
-16.500000, -27.000000, 5.039097
-16.500000, -26.500000, 4.879254
-16.500000, -26.000000, 4.723185
-16.500000, -25.500000, 4.570885
-16.500000, -25.000000, 4.422348
-16.500000, -24.500000, 4.277568
-16.500000, -24.000000, 4.136538
-16.500000, -23.500000, 3.999255
-16.500000, -23.000000, 3.865711
-16.500000, -22.500000, 3.735901
-16.500000, -22.000000, 3.609819
-16.500000, -21.500000, 3.487458
-16.500000, -21.000000, 3.36881
-16.500000, -20.500000, 3.253867
-16.500000, -20.000000, 3.142619
-16.500000, -19.500000, 3.035054
-16.500000, -19.000000, 2.931159
-16.500000, -18.500000, 2.83092
-16.500000, -18.000000, 2.734319
-16.500000, -17.500000, 2.641335
-16.500000, -17.000000, 2.551947
-16.500000, -16.500000, 2.466126
-16.500000, -16.000000, 2.383844
-16.500000, -15.500000, 2.305067
-16.500000, -15.000000, 2.229755
-16.500000, -14.500000, 2.157865
-16.500000, -14.000000, 2.089349
-16.500000, -13.500000, 2.024154
-16.500000, -13.000000, 1.96222
-16.500000, -12.500000, 1.903482
-16.500000, -12.000000, 1.847871
-16.500000, -11.500000, 1.795308
-16.500000, -11.000000, 1.745714
-16.500000, -10.500000, 1.699001
-16.500000, -10.000000, 1.655078
-16.500000, -9.500000, 1.613852
-16.500000, -9.000000, 1.575225
-16.500000, -8.500000, 1.5391
-16.500000, -8.000000, 1.505379
-16.500000, -7.500000, 1.47397
-16.500000, -7.000000, 1.444781
-16.500000, -6.500000, 1.417732
-16.500000, -6.000000, 1.392749
-16.500000, -5.500000, 1.36977
-16.500000, -5.000000, 1.348745
-16.500000, -4.500000, 1.329637
-16.500000, -4.000000, 1.312421
-16.500000, -3.500000, 1.297083
-16.500000, -3.000000, 1.283616
-16.500000, -2.500000, 1.272018
-16.500000, -2.000000, 1.262287
-16.500000, -1.500000, 1.254424
-16.500000, -1.000000, 1.248427
-16.500000, -0.500000, 1.244299
-16.500000, 0.000000, 1.24204
-16.500000, 0.500000, 1.241657
-16.500000, 1.000000, 1.243157
-16.500000, 1.500000, 1.246555
-16.500000, 2.000000, 1.251871
-16.500000, 2.500000, 1.25913
-16.500000, 3.000000, 1.268367
-16.500000, 3.500000, 1.279621
-16.500000, 4.000000, 1.292938
-16.500000, 4.500000, 1.308369
-16.500000, 5.000000, 1.325972
-16.500000, 5.500000, 1.345809
-16.500000, 6.000000, 1.367943
-16.500000, 6.500000, 1.392442
-16.500000, 7.000000, 1.419375
-16.500000, 7.500000, 1.448812
-16.500000, 8.000000, 1.480822
-16.500000, 8.500000, 1.515475
-16.500000, 9.000000, 1.552839
-16.500000, 9.500000, 1.59298
-16.500000, 10.000000, 1.635962
-16.500000, 10.500000, 1.681847
-16.500000, 11.000000, 1.730693
-16.500000, 11.500000, 1.782558
-16.500000, 12.000000, 1.837493
-16.500000, 12.500000, 1.895549
-16.500000, 13.000000, 1.956772
-16.500000, 13.500000, 2.021205
-16.500000, 14.000000, 2.08889
-16.500000, 14.500000, 2.159863
-16.500000, 15.000000, 2.23416
-16.500000, 15.500000, 2.311812
-16.500000, 16.000000, 2.392848
-16.500000, 16.500000, 2.477295
-16.500000, 17.000000, 2.565179
-16.500000, 17.500000, 2.656521
-16.500000, 18.000000, 2.751343
-16.500000, 18.500000, 2.849663
-16.500000, 19.000000, 2.951499
-16.500000, 19.500000, 3.056867
-16.500000, 20.000000, 3.165781
-16.500000, 20.500000, 3.278256
-16.500000, 21.000000, 3.394305
-16.500000, 21.500000, 3.513939
-16.500000, 22.000000, 3.63717
-16.500000, 22.500000, 3.764009
-16.500000, 23.000000, 3.894466
-16.500000, 23.500000, 4.028551
-16.500000, 24.000000, 4.166275
-16.500000, 24.500000, 4.307648
-16.500000, 25.000000, 4.452679
-16.500000, 25.500000, 4.601379
-16.500000, 26.000000, 4.753758
-16.500000, 26.500000, 4.909826
-16.500000, 27.000000, 5.069594
-16.500000, 27.500000, 5.233075
-16.500000, 28.000000, 5.400278
-16.500000, 28.500000, 5.571217
-16.500000, 29.000000, 5.745905
-16.500000, 29.500000, 5.924355
-16.500000, 30.000000, 6.10658
-16.500000, 30.500000, 6.292597
-16.500000, 31.000000, 6.48242
-16.500000, 31.500000, 6.676066
-16.500000, 32.000000, 6.873553
-16.500000, 32.500000, 7.074898
-16.500000, 33.000000, 7.28012
-16.500000, 33.500000, 7.48924
-16.500000, 34.000000, 7.702278
-16.500000, 34.500000, 7.919257
-16.500000, 35.000000, 8.140199
-16.500000, 35.500000, 8.365129
-16.500000, 36.000000, 8.594072
-16.500000, 36.500000, 8.827053
-16.500000, 37.000000, 9.064102
-16.500000, 37.500000, 9.305246
-16.500000, 38.000000, 9.550515
-16.500000, 38.500000, 9.799941
-16.500000, 39.000000, 10.053556
-16.500000, 39.500000, 10.311395
-16.500000, 40.000000, 10.573492
-16.500000, 40.500000, 10.839885
-16.500000, 41.000000, 11.110611
-16.500000, 41.500000, 11.38571
-16.500000, 42.000000, 11.665224
-16.500000, 42.500000, 11.949196
-16.000000, -42.500000, 11.880768
-16.000000, -42.000000, 11.596052
-16.000000, -41.500000, 11.315784
-16.000000, -41.000000, 11.03992
-16.000000, -40.500000, 10.768419
-16.000000, -40.000000, 10.501243
-16.000000, -39.500000, 10.238354
-16.000000, -39.000000, 9.979716
-16.000000, -38.500000, 9.725296
