-20.500000, -4.000000, 2.464253
-20.500000, -3.500000, 2.442915
-20.500000, -3.000000, 2.42441
-20.500000, -2.500000, 2.408736
-20.500000, -2.000000, 2.395888
-20.500000, -1.500000, 2.385867
-20.500000, -1.000000, 2.37867
-20.500000, -0.500000, 2.374298
-20.500000, 0.000000, 2.372751
-20.500000, 0.500000, 2.374031
-20.500000, 1.000000, 2.378138
-20.500000, 1.500000, 2.385077
-20.500000, 2.000000, 2.394849
-20.500000, 2.500000, 2.407461
-20.500000, 3.000000, 2.422916
-20.500000, 3.500000, 2.44122
-20.500000, 4.000000, 2.462381
-20.500000, 4.500000, 2.486405
-20.500000, 5.000000, 2.513302
-20.500000, 5.500000, 2.543078
-20.500000, 6.000000, 2.575744
-20.500000, 6.500000, 2.61131
-20.500000, 7.000000, 2.649784
-20.500000, 7.500000, 2.691179
-20.500000, 8.000000, 2.735505
-20.500000, 8.500000, 2.782772
-20.500000, 9.000000, 2.832993
-20.500000, 9.500000, 2.886179
-20.500000, 10.000000, 2.942341
-20.500000, 10.500000, 3.001492
-20.500000, 11.000000, 3.063642
-20.500000, 11.500000, 3.128805
-20.500000, 12.000000, 3.196992
-20.500000, 12.500000, 3.268215
-20.500000, 13.000000, 3.342485
-20.500000, 13.500000, 3.419817
-20.500000, 14.000000, 3.500221
-20.500000, 14.500000, 3.583709
-20.500000, 15.000000, 3.670295
-20.500000, 15.500000, 3.759991
-20.500000, 16.000000, 3.852809
-20.500000, 16.500000, 3.948761
-20.500000, 17.000000, 4.047861
-20.500000, 17.500000, 4.150122
-20.500000, 18.000000, 4.255556
-20.500000, 18.500000, 4.364178
-20.500000, 19.000000, 4.476
-20.500000, 19.500000, 4.591036
-20.500000, 20.000000, 4.7093
-20.500000, 20.500000, 4.830808
-20.500000, 21.000000, 4.955572
-20.500000, 21.500000, 5.083608
-20.500000, 22.000000, 5.214932
-20.500000, 22.500000, 5.349559
-20.500000, 23.000000, 5.487505
-20.500000, 23.500000, 5.628786
-20.500000, 24.000000, 5.773419
-20.500000, 24.500000, 5.921422
-20.500000, 25.000000, 6.072812
-20.500000, 25.500000, 6.227608
-20.500000, 26.000000, 6.385827
-20.500000, 26.500000, 6.54749
-20.500000, 27.000000, 6.712616
-20.500000, 27.500000, 6.881226
-20.500000, 28.000000, 7.05334
-20.500000, 28.500000, 7.228981
-20.500000, 29.000000, 7.408169
-20.500000, 29.500000, 7.590929
-20.500000, 30.000000, 7.777284
-20.500000, 30.500000, 7.967257
-20.500000, 31.000000, 8.160874
-20.500000, 31.500000, 8.35816
-20.500000, 32.000000, 8.559143
-20.500000, 32.500000, 8.763848
-20.500000, 33.000000, 8.972305
-20.500000, 33.500000, 9.184542
-20.500000, 34.000000, 9.400589
-20.500000, 34.500000, 9.620477
-20.500000, 35.000000, 9.844237
-20.500000, 35.500000, 10.071901
-20.500000, 36.000000, 10.303504
-20.500000, 36.500000, 10.53908
-20.500000, 37.000000, 10.778664
-20.500000, 37.500000, 11.022294
-20.500000, 38.000000, 11.270007
-20.500000, 38.500000, 11.521842
-20.500000, 39.000000, 11.77784
-20.500000, 39.500000, 12.038041
-20.500000, 40.000000, 12.302489
-20.500000, 40.500000, 12.571228
-20.500000, 41.000000, 12.844304
-20.500000, 41.500000, 13.121763
-20.500000, 42.000000, 13.403654
-20.500000, 42.500000, 13.690026
-20.000000, -42.500000, 13.556685
-20.000000, -42.000000, 13.270696
-20.000000, -41.500000, 12.989177
-20.000000, -41.000000, 12.712079
-20.000000, -40.500000, 12.439353
-20.000000, -40.000000, 12.170953
-20.000000, -39.500000, 11.906834
-20.000000, -39.000000, 11.646952
-20.000000, -38.500000, 11.391265
-20.000000, -38.000000, 11.139731
-20.000000, -37.500000, 10.892311
-20.000000, -37.000000, 10.648966
-20.000000, -36.500000, 10.409659
-20.000000, -36.000000, 10.174352
-20.000000, -35.500000, 9.943012
-20.000000, -35.000000, 9.715604
-20.000000, -34.500000, 9.492095
-20.000000, -34.000000, 9.272452
-20.000000, -33.500000, 9.056645
-20.000000, -33.000000, 8.844643
-20.000000, -32.500000, 8.636417
-20.000000, -32.000000, 8.431939
-20.000000, -31.500000, 8.23118
-20.000000, -31.000000, 8.034115
-20.000000, -30.500000, 7.840717
-20.000000, -30.000000, 7.650961
-20.000000, -29.500000, 7.464823
-20.000000, -29.000000, 7.28228
-20.000000, -28.500000, 7.103307
-20.000000, -28.000000, 6.927883
-20.000000, -27.500000, 6.755987
-20.000000, -27.000000, 6.587596
-20.000000, -26.500000, 6.422692
-20.000000, -26.000000, 6.261254
-20.000000, -25.500000, 6.103262
-20.000000, -25.000000, 5.948699
-20.000000, -24.500000, 5.797546
-20.000000, -24.000000, 5.649785
-20.000000, -23.500000, 5.5054
-20.000000, -23.000000, 5.364373
-20.000000, -22.500000, 5.226689
-20.000000, -22.000000, 5.092331
-20.000000, -21.500000, 4.961283
-20.000000, -21.000000, 4.833531
-20.000000, -20.500000, 4.709059
-20.000000, -20.000000, 4.587853
-20.000000, -19.500000, 4.469899
-20.000000, -19.000000, 4.355181
-20.000000, -18.500000, 4.243687
-20.000000, -18.000000, 4.135401
-20.000000, -17.500000, 4.030311
-20.000000, -17.000000, 3.928402
-20.000000, -16.500000, 3.829661
-20.000000, -16.000000, 3.734074
-20.000000, -15.500000, 3.641626
-20.000000, -15.000000, 3.552305
-20.000000, -14.500000, 3.466096
-20.000000, -14.000000, 3.382985
-20.000000, -13.500000, 3.302958
-20.000000, -13.000000, 3.226
-20.000000, -12.500000, 3.152096
-20.000000, -12.000000, 3.081233
-20.000000, -11.500000, 3.013394
-20.000000, -11.000000, 2.948565
-20.000000, -10.500000, 2.886731
-20.000000, -10.000000, 2.827876
-20.000000, -9.500000, 2.771986
-20.000000, -9.000000, 2.719046
-20.000000, -8.500000, 2.669041
-20.000000, -8.000000, 2.621956
-20.000000, -7.500000, 2.577778
-20.000000, -7.000000, 2.536494
-20.000000, -6.500000, 2.498093
-20.000000, -6.000000, 2.462561
-20.000000, -5.500000, 2.42989
-20.000000, -5.000000, 2.400071
-20.000000, -4.500000, 2.373096
-20.000000, -4.000000, 2.348958
-20.000000, -3.500000, 2.327653
-20.000000, -3.000000, 2.309176
-20.000000, -2.500000, 2.293524
-20.000000, -2.000000, 2.280694
-20.000000, -1.500000, 2.270686
-20.000000, -1.000000, 2.263497
-20.000000, -0.500000, 2.259129
-20.000000, 0.000000, 2.257581
-20.000000, 0.500000, 2.258854
-20.000000, 1.000000, 2.262951
-20.000000, 1.500000, 2.269874
-20.000000, 2.000000, 2.279626
-20.000000, 2.500000, 2.292212
-20.000000, 3.000000, 2.307637
-20.000000, 3.500000, 2.325907
-20.000000, 4.000000, 2.347029
-20.000000, 4.500000, 2.37101
-20.000000, 5.000000, 2.397858
-20.000000, 5.500000, 2.427583
-20.000000, 6.000000, 2.460193
-20.000000, 6.500000, 2.495699
-20.000000, 7.000000, 2.534111
-20.000000, 7.500000, 2.57544
-20.000000, 8.000000, 2.619696
-20.000000, 8.500000, 2.666892
-20.000000, 9.000000, 2.717038
-20.000000, 9.500000, 2.770145
-20.000000, 10.000000, 2.826227
-20.000000, 10.500000, 2.885295
-20.000000, 11.000000, 2.94736
-20.000000, 11.500000, 3.012434
-20.000000, 12.000000, 3.080531
-20.000000, 12.500000, 3.15166
-20.000000, 13.000000, 3.225836
-20.000000, 13.500000, 3.30307
-20.000000, 14.000000, 3.383373
-20.000000, 14.500000, 3.466759
-20.000000, 15.000000, 3.553239
-20.000000, 15.500000, 3.642826
-20.000000, 16.000000, 3.735532
-20.000000, 16.500000, 3.83137
-20.000000, 17.000000, 3.930352
-20.000000, 17.500000, 4.032492
-20.000000, 18.000000, 4.137801
-20.000000, 18.500000, 4.246295
-20.000000, 19.000000, 4.357985
-20.000000, 19.500000, 4.472885
-20.000000, 20.000000, 4.59101
-20.000000, 20.500000, 4.712373
-20.000000, 21.000000, 4.836989
-20.000000, 21.500000, 4.964872
-20.000000, 22.000000, 5.096038
-20.000000, 22.500000, 5.230503
-20.000000, 23.000000, 5.368281
-20.000000, 23.500000, 5.50939
-20.000000, 24.000000, 5.653845
-20.000000, 24.500000, 5.801665
-20.000000, 25.000000, 5.952866
-20.000000, 25.500000, 6.107466
-20.000000, 26.000000, 6.265485
-20.000000, 26.500000, 6.426941
-20.000000, 27.000000, 6.591855
-20.000000, 27.500000, 6.760245
-20.000000, 28.000000, 6.932133
-20.000000, 28.500000, 7.107541
-20.000000, 29.000000, 7.28649
-20.000000, 29.500000, 7.469003
-20.000000, 30.000000, 7.655104
-20.000000, 30.500000, 7.844816
-20.000000, 31.000000, 8.038165
-20.000000, 31.500000, 8.235175
-20.000000, 32.000000, 8.435874
-20.000000, 32.500000, 8.640288
-20.000000, 33.000000, 8.848444
-20.000000, 33.500000, 9.060373
-20.000000, 34.000000, 9.276103
-20.000000, 34.500000, 9.495665
-20.000000, 35.000000, 9.719091
-20.000000, 35.500000, 9.946412
-20.000000, 36.000000, 10.177662
-20.000000, 36.500000, 10.412876
-20.000000, 37.000000, 10.652089
-20.000000, 37.500000, 10.895337
-20.000000, 38.000000, 11.142658
-20.000000, 38.500000, 11.394091
-20.000000, 39.000000, 11.649677
-20.000000, 39.500000, 11.909455
-20.000000, 40.000000, 12.173469
-20.000000, 40.500000, 12.441763
-20.000000, 41.000000, 12.714382
-20.000000, 41.500000, 12.991372
-20.000000, 42.000000, 13.272782
-20.000000, 42.500000, 13.558662
-19.500000, -42.500000, 13.429048
-19.500000, -42.000000, 13.143538
-19.500000, -41.500000, 12.862487
-19.500000, -41.000000, 12.585844
-19.500000, -40.500000, 12.313562
-19.500000, -40.000000, 12.045594
-19.500000, -39.500000, 11.781896
-19.500000, -39.000000, 11.522425
-19.500000, -38.500000, 11.267137
-19.500000, -38.000000, 11.015992
-19.500000, -37.500000, 10.768951
-19.500000, -37.000000, 10.525976
-19.500000, -36.500000, 10.287027
-19.500000, -36.000000, 10.052071
-19.500000, -35.500000, 9.821071
-19.500000, -35.000000, 9.593994
-19.500000, -34.500000, 9.370807
-19.500000, -34.000000, 9.151477
-19.500000, -33.500000, 8.935974
-19.500000, -33.000000, 8.724268
-19.500000, -32.500000, 8.51633
-19.500000, -32.000000, 8.312131
-19.500000, -31.500000, 8.111643
-19.500000, -31.000000, 7.914842
-19.500000, -30.500000, 7.721699
-19.500000, -30.000000, 7.532192
-19.500000, -29.500000, 7.346294
-19.500000, -29.000000, 7.163984
-19.500000, -28.500000, 6.985237
-19.500000, -28.000000, 6.810033
-19.500000, -27.500000, 6.638349
-19.500000, -27.000000, 6.470164
-19.500000, -26.500000, 6.305459
-19.500000, -26.000000, 6.144214
-19.500000, -25.500000, 5.98641
-19.500000, -25.000000, 5.832028
-19.500000, -24.500000, 5.68105
-19.500000, -24.000000, 5.533459
-19.500000, -23.500000, 5.389238
-19.500000, -23.000000, 5.248371
-19.500000, -22.500000, 5.11084
-19.500000, -22.000000, 4.976631
-19.500000, -21.500000, 4.845728
-19.500000, -21.000000, 4.718116
-19.500000, -20.500000, 4.593781
-19.500000, -20.000000, 4.472707
-19.500000, -19.500000, 4.354881
-19.500000, -19.000000, 4.240288
-19.500000, -18.500000, 4.128915
-19.500000, -18.000000, 4.020748
-19.500000, -17.500000, 3.915774
-19.500000, -17.000000, 3.813978
-19.500000, -16.500000, 3.715347
-19.500000, -16.000000, 3.619867
-19.500000, -15.500000, 3.527526
-19.500000, -15.000000, 3.438309
-19.500000, -14.500000, 3.352201
-19.500000, -14.000000, 3.26919
-19.500000, -13.500000, 3.189261
-19.500000, -13.000000, 3.1124
-19.500000, -12.500000, 3.038592
-19.500000, -12.000000, 2.967821
-19.500000, -11.500000, 2.900074
-19.500000, -11.000000, 2.835335
-19.500000, -10.500000, 2.773589
-19.500000, -10.000000, 2.71482
-19.500000, -9.500000, 2.659013
-19.500000, -9.000000, 2.606152
-19.500000, -8.500000, 2.556224
-19.500000, -8.000000, 2.509213
-19.500000, -7.500000, 2.465104
-19.500000, -7.000000, 2.423886
-19.500000, -6.500000, 2.385545
-19.500000, -6.000000, 2.35007
-19.500000, -5.500000, 2.31745
-19.500000, -5.000000, 2.287677
-19.500000, -4.500000, 2.260743
-19.500000, -4.000000, 2.236641
-19.500000, -3.500000, 2.215366
-19.500000, -3.000000, 2.196915
-19.500000, -2.500000, 2.181285
-19.500000, -2.000000, 2.168472
-19.500000, -1.500000, 2.158476
-19.500000, -1.000000, 2.151296
-19.500000, -0.500000, 2.146931
-19.500000, 0.000000, 2.145382
-19.500000, 0.500000, 2.14665
-19.500000, 1.000000, 2.150737
-19.500000, 1.500000, 2.157645
-19.500000, 2.000000, 2.167379
-19.500000, 2.500000, 2.179941
-19.500000, 3.000000, 2.195338
-19.500000, 3.500000, 2.213575
-19.500000, 4.000000, 2.23466
-19.500000, 4.500000, 2.258599
-19.500000, 5.000000, 2.285402
-19.500000, 5.500000, 2.315078
-19.500000, 6.000000, 2.347635
-19.500000, 6.500000, 2.383084
-19.500000, 7.000000, 2.421437
-19.500000, 7.500000, 2.462702
-19.500000, 8.000000, 2.506893
-19.500000, 8.500000, 2.554019
-19.500000, 9.000000, 2.604094
-19.500000, 9.500000, 2.657128
-19.500000, 10.000000, 2.713133
-19.500000, 10.500000, 2.772122
-19.500000, 11.000000, 2.834106
-19.500000, 11.500000, 2.899097
-19.500000, 12.000000, 2.967107
-19.500000, 12.500000, 3.038149
-19.500000, 13.000000, 3.112234
-19.500000, 13.500000, 3.189375
-19.500000, 14.000000, 3.269583
-19.500000, 14.500000, 3.352871
-19.500000, 15.000000, 3.43925
-19.500000, 15.500000, 3.528734
-19.500000, 16.000000, 3.621334
-19.500000, 16.500000, 3.717063
-19.500000, 17.000000, 3.815933
-19.500000, 17.500000, 3.917957
-19.500000, 18.000000, 4.023148
-19.500000, 18.500000, 4.131519
-19.500000, 19.000000, 4.243083
-19.500000, 19.500000, 4.357853
-19.500000, 20.000000, 4.475844
-19.500000, 20.500000, 4.597069
-19.500000, 21.000000, 4.721543
-19.500000, 21.500000, 4.849279
-19.500000, 22.000000, 4.980294
-19.500000, 22.500000, 5.114602
-19.500000, 23.000000, 5.25222
-19.500000, 23.500000, 5.393162
-19.500000, 24.000000, 5.537446
-19.500000, 24.500000, 5.685089
-19.500000, 25.000000, 5.836107
-19.500000, 25.500000, 5.99052
-19.500000, 26.000000, 6.148345
-19.500000, 26.500000, 6.309601
-19.500000, 27.000000, 6.474309
-19.500000, 27.500000, 6.642487
-19.500000, 28.000000, 6.814156
-19.500000, 28.500000, 6.989339
-19.500000, 29.000000, 7.168056
-19.500000, 29.500000, 7.35033
-19.500000, 30.000000, 7.536185
-19.500000, 30.500000, 7.725644
-19.500000, 31.000000, 7.918732
-19.500000, 31.500000, 8.115474
-19.500000, 32.000000, 8.315897
-19.500000, 32.500000, 8.520027
-19.500000, 33.000000, 8.727892
-19.500000, 33.500000, 8.939522
-19.500000, 34.000000, 9.154944
-19.500000, 34.500000, 9.37419
-19.500000, 35.000000, 9.59729
-19.500000, 35.500000, 9.824277
-19.500000, 36.000000, 10.055185
-19.500000, 36.500000, 10.290047
-19.500000, 37.000000, 10.528898
-19.500000, 37.500000, 10.771775
-19.500000, 38.000000, 11.018716
-19.500000, 38.500000, 11.269759
-19.500000, 39.000000, 11.524943
-19.500000, 39.500000, 11.78431
-19.500000, 40.000000, 12.047902
-19.500000, 40.500000, 12.315763
-19.500000, 41.000000, 12.587938
-19.500000, 41.500000, 12.864472
-19.500000, 42.000000, 13.145415
-19.500000, 42.500000, 13.430816
-19.000000, -42.500000, 13.304907
-19.000000, -42.000000, 13.019864
-19.000000, -41.500000, 12.739266
-19.000000, -41.000000, 12.463066
-19.000000, -40.500000, 12.191216
-19.000000, -40.000000, 11.923669
-19.000000, -39.500000, 11.660381
-19.000000, -39.000000, 11.401308
-19.000000, -38.500000, 11.146409
-19.000000, -38.000000, 10.895644
-19.000000, -37.500000, 10.648971
-19.000000, -37.000000, 10.406354
-19.000000, -36.500000, 10.167756
-19.000000, -36.000000, 9.933139
-19.000000, -35.500000, 9.702471
-19.000000, -35.000000, 9.475715
-19.000000, -34.500000, 9.252841
-19.000000, -34.000000, 9.033816
-19.000000, -33.500000, 8.818609
-19.000000, -33.000000, 8.60719
-19.000000, -32.500000, 8.399531
-19.000000, -32.000000, 8.195603
-19.000000, -31.500000, 7.99538
-19.000000, -31.000000, 7.798833
-19.000000, -30.500000, 7.605939
-19.000000, -30.000000, 7.416672
-19.000000, -29.500000, 7.231008
-19.000000, -29.000000, 7.048924
-19.000000, -28.500000, 6.870397
-19.000000, -28.000000, 6.695404
-19.000000, -27.500000, 6.523926
-19.000000, -27.000000, 6.35594
-19.000000, -26.500000, 6.191428
-19.000000, -26.000000, 6.030369
-19.000000, -25.500000, 5.872745
-19.000000, -25.000000, 5.718538
-19.000000, -24.500000, 5.567729
-19.000000, -24.000000, 5.420301
-19.000000, -23.500000, 5.276238
-19.000000, -23.000000, 5.135523
-19.000000, -22.500000, 4.99814
-19.000000, -22.000000, 4.864074
-19.000000, -21.500000, 4.733309
-19.000000, -21.000000, 4.605831
-19.000000, -20.500000, 4.481626
-19.000000, -20.000000, 4.360678
-19.000000, -19.500000, 4.242973
-19.000000, -19.000000, 4.128499
-19.000000, -18.500000, 4.017241
-19.000000, -18.000000, 3.909187
-19.000000, -17.500000, 3.804321
-19.000000, -17.000000, 3.702631
-19.000000, -16.500000, 3.604104
-19.000000, -16.000000, 3.508727
-19.000000, -15.500000, 3.416485
-19.000000, -15.000000, 3.327365
-19.000000, -14.500000, 3.241354
-19.000000, -14.000000, 3.158437
-19.000000, -13.500000, 3.078601
-19.000000, -13.000000, 3.00183
-19.000000, -12.500000, 2.928111
-19.000000, -12.000000, 2.857429
-19.000000, -11.500000, 2.789769
-19.000000, -11.000000, 2.725114
-19.000000, -10.500000, 2.663451
-19.000000, -10.000000, 2.604762
-19.000000, -9.500000, 2.549034
-19.000000, -9.000000, 2.49625
-19.000000, -8.500000, 2.446394
-19.000000, -8.000000, 2.399453
-19.000000, -7.500000, 2.355411
-19.000000, -7.000000, 2.314255
-19.000000, -6.500000, 2.275972
-19.000000, -6.000000, 2.24055
-19.000000, -5.500000, 2.207979
-19.000000, -5.000000, 2.178249
-19.000000, -4.500000, 2.151354
-19.000000, -4.000000, 2.127286
-19.000000, -3.500000, 2.106041
-19.000000, -3.000000, 2.087614
-19.000000, -2.500000, 2.072004
-19.000000, -2.000000, 2.059208
-19.000000, -1.500000, 2.049224
-19.000000, -1.000000, 2.042051
-19.000000, -0.500000, 2.03769
-19.000000, 0.000000, 2.036141
-19.000000, 0.500000, 2.037405
-19.000000, 1.000000, 2.041483
-19.000000, 1.500000, 2.048378
-19.000000, 2.000000, 2.058093
-19.000000, 2.500000, 2.070633
-19.000000, 3.000000, 2.086004
-19.000000, 3.500000, 2.10421
-19.000000, 4.000000, 2.125259
-19.000000, 4.500000, 2.14916
-19.000000, 5.000000, 2.17592
-19.000000, 5.500000, 2.205549
-19.000000, 6.000000, 2.238056
-19.000000, 6.500000, 2.273452
-19.000000, 7.000000, 2.311747
-19.000000, 7.500000, 2.352953
-19.000000, 8.000000, 2.397081
-19.000000, 8.500000, 2.444143
-19.000000, 9.000000, 2.49415
-19.000000, 9.500000, 2.547114
-19.000000, 10.000000, 2.603047
-19.000000, 10.500000, 2.661961
-19.000000, 11.000000, 2.723868
-19.000000, 11.500000, 2.788781
-19.000000, 12.000000, 2.85671
-19.000000, 12.500000, 2.927669
-19.000000, 13.000000, 3.001668
-19.000000, 13.500000, 3.078721
-19.000000, 14.000000, 3.158839
-19.000000, 14.500000, 3.242034
-19.000000, 15.000000, 3.328318
-19.000000, 15.500000, 3.417704
-19.000000, 16.000000, 3.510204
-19.000000, 16.500000, 3.605829
-19.000000, 17.000000, 3.704592
-19.000000, 17.500000, 3.806507
-19.000000, 18.000000, 3.911585
-19.000000, 18.500000, 4.019839
-19.000000, 19.000000, 4.131282
-19.000000, 19.500000, 4.245929
-19.000000, 20.000000, 4.363792
-19.000000, 20.500000, 4.484885
-19.000000, 21.000000, 4.609222
-19.000000, 21.500000, 4.736818
-19.000000, 22.000000, 4.867687
-19.000000, 22.500000, 5.001845
-19.000000, 23.000000, 5.139308
-19.000000, 23.500000, 5.28009
-19.000000, 24.000000, 5.424209
-19.000000, 24.500000, 5.571681
-19.000000, 25.000000, 5.722524
-19.000000, 25.500000, 5.876755
-19.000000, 26.000000, 6.034393
-19.000000, 26.500000, 6.195456
-19.000000, 27.000000, 6.359964
-19.000000, 27.500000, 6.527937
-19.000000, 28.000000, 6.699394
-19.000000, 28.500000, 6.874359
-19.000000, 29.000000, 7.052851
-19.000000, 29.500000, 7.234893
-19.000000, 30.000000, 7.42051
-19.000000, 30.500000, 7.609723
-19.000000, 31.000000, 7.802558
-19.000000, 31.500000, 7.999041
-19.000000, 32.000000, 8.199196
-19.000000, 32.500000, 8.403051
-19.000000, 33.000000, 8.610633
-19.000000, 33.500000, 8.821972
-19.000000, 34.000000, 9.037095
-19.000000, 34.500000, 9.256033
-19.000000, 35.000000, 9.478818
-19.000000, 35.500000, 9.705481
-19.000000, 36.000000, 9.936055
-19.000000, 36.500000, 10.170575
-19.000000, 37.000000, 10.409075
-19.000000, 37.500000, 10.651592
-19.000000, 38.000000, 10.898163
-19.000000, 38.500000, 11.148825
-19.000000, 39.000000, 11.40362
-19.000000, 39.500000, 11.662587
-19.000000, 40.000000, 11.925769
-19.000000, 40.500000, 12.193209
-19.000000, 41.000000, 12.464952
-19.000000, 41.500000, 12.741043
-19.000000, 42.000000, 13.021532
-19.000000, 42.500000, 13.306466
-18.500000, -42.500000, 13.184242
-18.500000, -42.000000, 12.899652
-18.500000, -41.500000, 12.619496
-18.500000, -41.000000, 12.343727
-18.500000, -40.500000, 12.072296
-18.500000, -40.000000, 11.805158
-18.500000, -39.500000, 11.542268
-18.500000, -39.000000, 11.283584
-18.500000, -38.500000, 11.029064
-18.500000, -38.000000, 10.778666
-18.500000, -37.500000, 10.532352
-18.500000, -37.000000, 10.290085
-18.500000, -36.500000, 10.051826
-18.500000, -36.000000, 9.81754
-18.500000, -35.500000, 9.587193
-18.500000, -35.000000, 9.360751
-18.500000, -34.500000, 9.138181
-18.500000, -34.000000, 8.919452
-18.500000, -33.500000, 8.704532
-18.500000, -33.000000, 8.493393
-18.500000, -32.500000, 8.286006
-18.500000, -32.000000, 8.082341
-18.500000, -31.500000, 7.882373
-18.500000, -31.000000, 7.686075
-18.500000, -30.500000, 7.493422
-18.500000, -30.000000, 7.304388
-18.500000, -29.500000, 7.11895
-18.500000, -29.000000, 6.937085
-18.500000, -28.500000, 6.75877
-18.500000, -28.000000, 6.583983
-18.500000, -27.500000, 6.412704
-18.500000, -27.000000, 6.244911
-18.500000, -26.500000, 6.080584
-18.500000, -26.000000, 5.919706
-18.500000, -25.500000, 5.762255
-18.500000, -25.000000, 5.608216
-18.500000, -24.500000, 5.457569
-18.500000, -24.000000, 5.310299
-18.500000, -23.500000, 5.166387
-18.500000, -23.000000, 5.025818
-18.500000, -22.500000, 4.888577
-18.500000, -22.000000, 4.754647
-18.500000, -21.500000, 4.624015
-18.500000, -21.000000, 4.496664
-18.500000, -20.500000, 4.372582
-18.500000, -20.000000, 4.251753
-18.500000, -19.500000, 4.134165
-18.500000, -19.000000, 4.019803
-18.500000, -18.500000, 3.908654
-18.500000, -18.000000, 3.800705
-18.500000, -17.500000, 3.695942
-18.500000, -17.000000, 3.594352
-18.500000, -16.500000, 3.495923
-18.500000, -16.000000, 3.400641
-18.500000, -15.500000, 3.308492
-18.500000, -15.000000, 3.219464
-18.500000, -14.500000, 3.133542
-18.500000, -14.000000, 3.050714
-18.500000, -13.500000, 2.970964
-18.500000, -13.000000, 2.894279
-18.500000, -12.500000, 2.820644
-18.500000, -12.000000, 2.750044
-18.500000, -11.500000, 2.682464
-18.500000, -11.000000, 2.61789
-18.500000, -10.500000, 2.556304
-18.500000, -10.000000, 2.497692
-18.500000, -9.500000, 2.442038
-18.500000, -9.000000, 2.389325
-18.500000, -8.500000, 2.339539
-18.500000, -8.000000, 2.292663
-18.500000, -7.500000, 2.248684
-18.500000, -7.000000, 2.207587
-18.500000, -6.500000, 2.169359
-18.500000, -6.000000, 2.133987
-18.500000, -5.500000, 2.101462
-18.500000, -5.000000, 2.071774
-18.500000, -4.500000, 2.044916
-18.500000, -4.000000, 2.02088
-18.500000, -3.500000, 1.999663
-18.500000, -3.000000, 1.98126
-18.500000, -2.500000, 1.965669
-18.500000, -2.000000, 1.952888
-18.500000, -1.500000, 1.942916
-18.500000, -1.000000, 1.935751
-18.500000, -0.500000, 1.931395
-18.500000, 0.000000, 1.929845
-18.500000, 0.500000, 1.931105
-18.500000, 1.000000, 1.935175
-18.500000, 1.500000, 1.942058
-18.500000, 2.000000, 1.951757
-18.500000, 2.500000, 1.964276
-18.500000, 3.000000, 1.979621
-18.500000, 3.500000, 1.997799
-18.500000, 4.000000, 2.018815
-18.500000, 4.500000, 2.042679
-18.500000, 5.000000, 2.069399
-18.500000, 5.500000, 2.098983
-18.500000, 6.000000, 2.131443
-18.500000, 6.500000, 2.166789
-18.500000, 7.000000, 2.205031
-18.500000, 7.500000, 2.246181
-18.500000, 8.000000, 2.29025
-18.500000, 8.500000, 2.33725
-18.500000, 9.000000, 2.387194
-18.500000, 9.500000, 2.440092
-18.500000, 10.000000, 2.495957
-18.500000, 10.500000, 2.554801
-18.500000, 11.000000, 2.616636
-18.500000, 11.500000, 2.681474
-18.500000, 12.000000, 2.749328
-18.500000, 12.500000, 2.820208
-18.500000, 13.000000, 2.894127
-18.500000, 13.500000, 2.971097
-18.500000, 14.000000, 3.05113
-18.500000, 14.500000, 3.134238
-18.500000, 15.000000, 3.220432
-18.500000, 15.500000, 3.309725
-18.500000, 16.000000, 3.40213
-18.500000, 16.500000, 3.497657
-18.500000, 17.000000, 3.596319
-18.500000, 17.500000, 3.698129
-18.500000, 18.000000, 3.8031
-18.500000, 18.500000, 3.911243
-18.500000, 19.000000, 4.022572
-18.500000, 19.500000, 4.1371
-18.500000, 20.000000, 4.254841
-18.500000, 20.500000, 4.375807
-18.500000, 21.000000, 4.500014
-18.500000, 21.500000, 4.627475
-18.500000, 22.000000, 4.758205
-18.500000, 22.500000, 4.892219
-18.500000, 23.000000, 5.029533
-18.500000, 23.500000, 5.170161
-18.500000, 24.000000, 5.314121
-18.500000, 24.500000, 5.461429
-18.500000, 25.000000, 5.612102
-18.500000, 25.500000, 5.766158
-18.500000, 26.000000, 5.923615
-18.500000, 26.500000, 6.084492
-18.500000, 27.000000, 6.248807
-18.500000, 27.500000, 6.416581
-18.500000, 28.000000, 6.587834
-18.500000, 28.500000, 6.762587
-18.500000, 29.000000, 6.940861
-18.500000, 29.500000, 7.122679
-18.500000, 30.000000, 7.308064
-18.500000, 30.500000, 7.49704
-18.500000, 31.000000, 7.68963
-18.500000, 31.500000, 7.88586
-18.500000, 32.000000, 8.085755
-18.500000, 32.500000, 8.289343
-18.500000, 33.000000, 8.496651
-18.500000, 33.500000, 8.707707
-18.500000, 34.000000, 8.922539
-18.500000, 34.500000, 9.141179
-18.500000, 35.000000, 9.363657
-18.500000, 35.500000, 9.590005
-18.500000, 36.000000, 9.820256
-18.500000, 36.500000, 10.054443
-18.500000, 37.000000, 10.292602
-18.500000, 37.500000, 10.534769
-18.500000, 38.000000, 10.78098
-18.500000, 38.500000, 11.031273
-18.500000, 39.000000, 11.285689
-18.500000, 39.500000, 11.544268
-18.500000, 40.000000, 11.807051
-18.500000, 40.500000, 12.074081
-18.500000, 41.000000, 12.345405
-18.500000, 41.500000, 12.621066
-18.500000, 42.000000, 12.901113
-18.500000, 42.500000, 13.185595
-18.000000, -42.500000, 13.067032
-18.000000, -42.000000, 12.782882
-18.000000, -41.500000, 12.503157
-18.000000, -41.000000, 12.227806
-18.000000, -40.500000, 11.956783
-18.000000, -40.000000, 11.690043
-18.000000, -39.500000, 11.427541
-18.000000, -39.000000, 11.169234
-18.000000, -38.500000, 10.915081
-18.000000, -38.000000, 10.665042
-18.000000, -37.500000, 10.419077
-18.000000, -37.000000, 10.177149
-18.000000, -36.500000, 9.93922
-18.000000, -36.000000, 9.705256
-18.000000, -35.500000, 9.475222
-18.000000, -35.000000, 9.249084
-18.000000, -34.500000, 9.02681
-18.000000, -34.000000, 8.808368
-18.000000, -33.500000, 8.593729
-18.000000, -33.000000, 8.382861
-18.000000, -32.500000, 8.175737
-18.000000, -32.000000, 7.972328
-18.000000, -31.500000, 7.772609
-18.000000, -31.000000, 7.576552
-18.000000, -30.500000, 7.384132
-18.000000, -30.000000, 7.195324
-18.000000, -29.500000, 7.010106
-18.000000, -29.000000, 6.828453
-18.000000, -28.500000, 6.650344
-18.000000, -28.000000, 6.475756
-18.000000, -27.500000, 6.304669
-18.000000, -27.000000, 6.137062
-18.000000, -26.500000, 5.972915
-18.000000, -26.000000, 5.81221
-18.000000, -25.500000, 5.654928
-18.000000, -25.000000, 5.50105
-18.000000, -24.500000, 5.35056
-18.000000, -24.000000, 5.20344
-18.000000, -23.500000, 5.059673
-18.000000, -23.000000, 4.919245
-18.000000, -22.500000, 4.782139
-18.000000, -22.000000, 4.64834
-18.000000, -21.500000, 4.517833
-18.000000, -21.000000, 4.390604
-18.000000, -20.500000, 4.266639
-18.000000, -20.000000, 4.145924
-18.000000, -19.500000, 4.028445
-18.000000, -19.000000, 3.914189
-18.000000, -18.500000, 3.803142
-18.000000, -18.000000, 3.695292
-18.000000, -17.500000, 3.590626
-18.000000, -17.000000, 3.48913
-18.000000, -16.500000, 3.390793
-18.000000, -16.000000, 3.295599
-18.000000, -15.500000, 3.203538
-18.000000, -15.000000, 3.114595
-18.000000, -14.500000, 3.028757
-18.000000, -14.000000, 2.94601
-18.000000, -13.500000, 2.866341
-18.000000, -13.000000, 2.789735
-18.000000, -12.500000, 2.716178
-18.000000, -12.000000, 2.645655
-18.000000, -11.500000, 2.578151
-18.000000, -11.000000, 2.51365
-18.000000, -10.500000, 2.452138
-18.000000, -10.000000, 2.393597
-18.000000, -9.500000, 2.338012
-18.000000, -9.000000, 2.285366
-18.000000, -8.500000, 2.235645
-18.000000, -8.000000, 2.188832
-18.000000, -7.500000, 2.144912
-18.000000, -7.000000, 2.10387
-18.000000, -6.500000, 2.065694
-18.000000, -6.000000, 2.03037
-18.000000, -5.500000, 1.997889
-18.000000, -5.000000, 1.96824
-18.000000, -4.500000, 1.941416
-18.000000, -4.000000, 1.917411
-18.000000, -3.500000, 1.89622
-18.000000, -3.000000, 1.877839
-18.000000, -2.500000, 1.862267
-18.000000, -2.000000, 1.849501
-18.000000, -1.500000, 1.83954
-18.000000, -1.000000, 1.832383
-18.000000, -0.500000, 1.828031
-18.000000, 0.000000, 1.826482
-18.000000, 0.500000, 1.827738
-18.000000, 1.000000, 1.831801
-18.000000, 1.500000, 1.838673
-18.000000, 2.000000, 1.848357
-18.000000, 2.500000, 1.860857
-18.000000, 3.000000, 1.876179
-18.000000, 3.500000, 1.894329
-18.000000, 4.000000, 1.915315
-18.000000, 4.500000, 1.939144
-18.000000, 5.000000, 1.965826
-18.000000, 5.500000, 1.995369
-18.000000, 6.000000, 2.027785
-18.000000, 6.500000, 2.063083
-18.000000, 7.000000, 2.101275
-18.000000, 7.500000, 2.142373
-18.000000, 8.000000, 2.186387
-18.000000, 8.500000, 2.23333
-18.000000, 9.000000, 2.283214
-18.000000, 9.500000, 2.336051
-18.000000, 10.000000, 2.391852
-18.000000, 10.500000, 2.450631
-18.000000, 11.000000, 2.512398
-18.000000, 11.500000, 2.577167
-18.000000, 12.000000, 2.644949
-18.000000, 12.500000, 2.715756
-18.000000, 13.000000, 2.789599
-18.000000, 13.500000, 2.866492
-18.000000, 14.000000, 2.946445
-18.000000, 14.500000, 3.029471
-18.000000, 15.000000, 3.115581
-18.000000, 15.500000, 3.204787
-18.000000, 16.000000, 3.297101
-18.000000, 16.500000, 3.392536
-18.000000, 17.000000, 3.491103
-18.000000, 17.500000, 3.592814
-18.000000, 18.000000, 3.697682
-18.000000, 18.500000, 3.80572
-18.000000, 19.000000, 3.91694
-18.000000, 19.500000, 4.031356
-18.000000, 20.000000, 4.14898
-18.000000, 20.500000, 4.269826
-18.000000, 21.000000, 4.393908
-18.000000, 21.500000, 4.52124
-18.000000, 22.000000, 4.651836
-18.000000, 22.500000, 4.785712
-18.000000, 23.000000, 4.922882
-18.000000, 23.500000, 5.063363
-18.000000, 24.000000, 5.20717
-18.000000, 24.500000, 5.35432
-18.000000, 25.000000, 5.50483
-18.000000, 25.500000, 5.658717
-18.000000, 26.000000, 5.815999
-18.000000, 26.500000, 5.976695
-18.000000, 27.000000, 6.140825
-18.000000, 27.500000, 6.308406
-18.000000, 28.000000, 6.479461
-18.000000, 28.500000, 6.654009
-18.000000, 29.000000, 6.832073
-18.000000, 29.500000, 7.013673
-18.000000, 30.000000, 7.198834
-18.000000, 30.500000, 7.387579
-18.000000, 31.000000, 7.579931
-18.000000, 31.500000, 7.775916
-18.000000, 32.000000, 7.97556
-18.000000, 32.500000, 8.178889
-18.000000, 33.000000, 8.38593
-18.000000, 33.500000, 8.596711
-18.000000, 34.000000, 8.811262
-18.000000, 34.500000, 9.029612
-18.000000, 35.000000, 9.251792
-18.000000, 35.500000, 9.477834
-18.000000, 36.000000, 9.70777
-18.000000, 36.500000, 9.941635
-18.000000, 37.000000, 10.179462
-18.000000, 37.500000, 10.421288
-18.000000, 38.000000, 10.66715
-18.000000, 38.500000, 10.917085
-18.000000, 39.000000, 11.171132
-18.000000, 39.500000, 11.429333
-18.000000, 40.000000, 11.691729
-18.000000, 40.500000, 11.958362
-18.000000, 41.000000, 12.229278
-18.000000, 41.500000, 12.504521
-18.000000, 42.000000, 12.784139
-18.000000, 42.500000, 13.068181
-17.500000, -42.500000, 12.953258
-17.500000, -42.000000, 12.669537
-17.500000, -41.500000, 12.390229
-17.500000, -41.000000, 12.115285
-17.500000, -40.500000, 11.844659
-17.500000, -40.000000, 11.578305
-17.500000, -39.500000, 11.316179
-17.500000, -39.000000, 11.058239
-17.500000, -38.500000, 10.804444
-17.500000, -38.000000, 10.554753
-17.500000, -37.500000, 10.309127
-17.500000, -37.000000, 10.067529
-17.500000, -36.500000, 9.829922
-17.500000, -36.000000, 9.59627
-17.500000, -35.500000, 9.36654
-17.500000, -35.000000, 9.140698
-17.500000, -34.500000, 8.918712
-17.500000, -34.000000, 8.700549
-17.500000, -33.500000, 8.486181
-17.500000, -33.000000, 8.275577
-17.500000, -32.500000, 8.068709
-17.500000, -32.000000, 7.865549
-17.500000, -31.500000, 7.666071
-17.500000, -31.000000, 7.470248
-17.500000, -30.500000, 7.278054
-17.500000, -30.000000, 7.089467
-17.500000, -29.500000, 6.904461
-17.500000, -29.000000, 6.723014
-17.500000, -28.500000, 6.545104
-17.500000, -28.000000, 6.370708
-17.500000, -27.500000, 6.199807
-17.500000, -27.000000, 6.03238
-17.500000, -26.500000, 5.868407
-17.500000, -26.000000, 5.70787
-17.500000, -25.500000, 5.550749
-17.500000, -25.000000, 5.397027
-17.500000, -24.500000, 5.246687
-17.500000, -24.000000, 5.099712
-17.500000, -23.500000, 4.956085
-17.500000, -23.000000, 4.815791
-17.500000, -22.500000, 4.678814
-17.500000, -22.000000, 4.54514
-17.500000, -21.500000, 4.414753
-17.500000, -21.000000, 4.28764
-17.500000, -20.500000, 4.163786
-17.500000, -20.000000, 4.043178
-17.500000, -19.500000, 3.925802
-17.500000, -19.000000, 3.811646
-17.500000, -18.500000, 3.700696
-17.500000, -18.000000, 3.592939
-17.500000, -17.500000, 3.488364
-17.500000, -17.000000, 3.386956
-17.500000, -16.500000, 3.288703
-17.500000, -16.000000, 3.193593
-17.500000, -15.500000, 3.101612
-17.500000, -15.000000, 3.012748
-17.500000, -14.500000, 2.926987
-17.500000, -14.000000, 2.844316
-17.500000, -13.500000, 2.764721
-17.500000, -13.000000, 2.688188
-17.500000, -12.500000, 2.614703
-17.500000, -12.000000, 2.544251
-17.500000, -11.500000, 2.476817
-17.500000, -11.000000, 2.412385
-17.500000, -10.500000, 2.35094
-17.500000, -10.000000, 2.292465
-17.500000, -9.500000, 2.236945
-17.500000, -9.000000, 2.184362
-17.500000, -8.500000, 2.134701
-17.500000, -8.000000, 2.087946
-17.500000, -7.500000, 2.044082
-17.500000, -7.000000, 2.003092
-17.500000, -6.500000, 1.964965
-17.500000, -6.000000, 1.929686
-17.500000, -5.500000, 1.897246
-17.500000, -5.000000, 1.867634
-17.500000, -4.500000, 1.840843
-17.500000, -4.000000, 1.816866
-17.500000, -3.500000, 1.7957
-17.500000, -3.000000, 1.777341
-17.500000, -2.500000, 1.761786
-17.500000, -2.000000, 1.749034
-17.500000, -1.500000, 1.739085
-17.500000, -1.000000, 1.731936
-17.500000, -0.500000, 1.727588
-17.500000, 0.000000, 1.72604
-17.500000, 0.500000, 1.727294
-17.500000, 1.000000, 1.73135
-17.500000, 1.500000, 1.738212
-17.500000, 2.000000, 1.747881
-17.500000, 2.500000, 1.760364
-17.500000, 3.000000, 1.775665
-17.500000, 3.500000, 1.79379
-17.500000, 4.000000, 1.814747
-17.500000, 4.500000, 1.838544
-17.500000, 5.000000, 1.865191
-17.500000, 5.500000, 1.894696
-17.500000, 6.000000, 1.92707
-17.500000, 6.500000, 1.962324
-17.500000, 7.000000, 2.00047
-17.500000, 7.500000, 2.041518
-17.500000, 8.000000, 2.085482
-17.500000, 8.500000, 2.132371
-17.500000, 9.000000, 2.1822
-17.500000, 9.500000, 2.234979
-17.500000, 10.000000, 2.290722
-17.500000, 10.500000, 2.34944
-17.500000, 11.000000, 2.411145
-17.500000, 11.500000, 2.475849
-17.500000, 12.000000, 2.543564
-17.500000, 12.500000, 2.614302
-17.500000, 13.000000, 2.688076
-17.500000, 13.500000, 2.764896
-17.500000, 14.000000, 2.844774
-17.500000, 14.500000, 2.927723
-17.500000, 15.000000, 3.013754
-17.500000, 15.500000, 3.102878
-17.500000, 16.000000, 3.195108
-17.500000, 16.500000, 3.290455
-17.500000, 17.000000, 3.388932
-17.500000, 17.500000, 3.49055
-17.500000, 18.000000, 3.595322
-17.500000, 18.500000, 3.70326
-17.500000, 19.000000, 3.814377
-17.500000, 19.500000, 3.928685
-17.500000, 20.000000, 4.046198
-17.500000, 20.500000, 4.166929
-17.500000, 21.000000, 4.290892
-17.500000, 21.500000, 4.4181
-17.500000, 22.000000, 4.548569
-17.500000, 22.500000, 4.682312
-17.500000, 23.000000, 4.819345
-17.500000, 23.500000, 4.959684
-17.500000, 24.000000, 5.103344
-17.500000, 24.500000, 5.250341
-17.500000, 25.000000, 5.400693
-17.500000, 25.500000, 5.554418
-17.500000, 26.000000, 5.711531
-17.500000, 26.500000, 5.872054
-17.500000, 27.000000, 6.036003
-17.500000, 27.500000, 6.203399
-17.500000, 28.000000, 6.374262
-17.500000, 28.500000, 6.548612
-17.500000, 29.000000, 6.726471
-17.500000, 29.500000, 6.907861
-17.500000, 30.000000, 7.092805
-17.500000, 30.500000, 7.281326
-17.500000, 31.000000, 7.473448
-17.500000, 31.500000, 7.669196
-17.500000, 32.000000, 7.868595
-17.500000, 32.500000, 8.071672
-17.500000, 33.000000, 8.278454
-17.500000, 33.500000, 8.488969
-17.500000, 34.000000, 8.703246
-17.500000, 34.500000, 8.921315
-17.500000, 35.000000, 9.143206
-17.500000, 35.500000, 9.368951
-17.500000, 36.000000, 9.598582
-17.500000, 36.500000, 9.832132
-17.500000, 37.000000, 10.069638
-17.500000, 37.500000, 10.311133
-17.500000, 38.000000, 10.556655
-17.500000, 38.500000, 10.806242
-17.500000, 39.000000, 11.059932
-17.500000, 39.500000, 11.317767
-17.500000, 40.000000, 11.579786
-17.500000, 40.500000, 11.846033
-17.500000, 41.000000, 12.116553
-17.500000, 41.500000, 12.39139
-17.500000, 42.000000, 12.670592
-17.500000, 42.500000, 12.954206
-17.000000, -42.500000, 12.842902
-17.000000, -42.000000, 12.559597
-17.000000, -41.500000, 12.280694
-17.000000, -41.000000, 12.006145
-17.000000, -40.500000, 11.735904
-17.000000, -40.000000, 11.469926
-17.000000, -39.500000, 11.208166
-17.000000, -39.000000, 10.950583
-17.000000, -38.500000, 10.697135
-17.000000, -38.000000, 10.447782
-17.000000, -37.500000, 10.202486
-17.000000, -37.000000, 9.961208
-17.000000, -36.500000, 9.723914
-17.000000, -36.000000, 9.490566
-17.000000, -35.500000, 9.261131
-17.000000, -35.000000, 9.035577
-17.000000, -34.500000, 8.81387
-17.000000, -34.000000, 8.595979
-17.000000, -33.500000, 8.381875
-17.000000, -33.000000, 8.171527
-17.000000, -32.500000, 7.964908
-17.000000, -32.000000, 7.761989
-17.000000, -31.500000, 7.562745
-17.000000, -31.000000, 7.367149
-17.000000, -30.500000, 7.175175
-17.000000, -30.000000, 6.986801
-17.000000, -29.500000, 6.802001
-17.000000, -29.000000, 6.620753
-17.000000, -28.500000, 6.443036
-17.000000, -28.000000, 6.268827
-17.000000, -27.500000, 6.098106
-17.000000, -27.000000, 5.930853
-17.000000, -26.500000, 5.767048
-17.000000, -26.000000, 5.606672
-17.000000, -25.500000, 5.449707
-17.000000, -25.000000, 5.296136
-17.000000, -24.500000, 5.14594
-17.000000, -24.000000, 4.999104
-17.000000, -23.500000, 4.855611
-17.000000, -23.000000, 4.715446
-17.000000, -22.500000, 4.578593
-17.000000, -22.000000, 4.445037
-17.000000, -21.500000, 4.314764
-17.000000, -21.000000, 4.187761
-17.000000, -20.500000, 4.064012
-17.000000, -20.000000, 3.943506
-17.000000, -19.500000, 3.826228
-17.000000, -19.000000, 3.712165
-17.000000, -18.500000, 3.601306
-17.000000, -18.000000, 3.493636
-17.000000, -17.500000, 3.389145
-17.000000, -17.000000, 3.287818
-17.000000, -16.500000, 3.189645
-17.000000, -16.000000, 3.094611
-17.000000, -15.500000, 3.002705
-17.000000, -15.000000, 2.913913
-17.000000, -14.500000, 2.828224
-17.000000, -14.000000, 2.745622
-17.000000, -13.500000, 2.666095
-17.000000, -13.000000, 2.58963
-17.000000, -12.500000, 2.516211
-17.000000, -12.000000, 2.445824
-17.000000, -11.500000, 2.378453
-17.000000, -11.000000, 2.314084
-17.000000, -10.500000, 2.252701
-17.000000, -10.000000, 2.194287
-17.000000, -9.500000, 2.138826
-17.000000, -9.000000, 2.086301
-17.000000, -8.500000, 2.036697
-17.000000, -8.000000, 1.989996
-17.000000, -7.500000, 1.946182
-17.000000, -7.000000, 1.905242
-17.000000, -6.500000, 1.86716
-17.000000, -6.000000, 1.831924
-17.000000, -5.500000, 1.799522
-17.000000, -5.000000, 1.769945
-17.000000, -4.500000, 1.743185
-17.000000, -4.000000, 1.719235
-17.000000, -3.500000, 1.698093
-17.000000, -3.000000, 1.679754
-17.000000, -2.500000, 1.664216
-17.000000, -2.000000, 1.651479
-17.000000, -1.500000, 1.64154
-17.000000, -1.000000, 1.634399
-17.000000, -0.500000, 1.630055
-17.000000, 0.000000, 1.628508
-17.000000, 0.500000, 1.62976
-17.000000, 1.000000, 1.63381
-17.000000, 1.500000, 1.640663
-17.000000, 2.000000, 1.65032
-17.000000, 2.500000, 1.662786
-17.000000, 3.000000, 1.678067
-17.000000, 3.500000, 1.696169
-17.000000, 4.000000, 1.7171
-17.000000, 4.500000, 1.740868
-17.000000, 5.000000, 1.767481
-17.000000, 5.500000, 1.796951
-17.000000, 6.000000, 1.829287
-17.000000, 6.500000, 1.864501
-17.000000, 7.000000, 1.902604
-17.000000, 7.500000, 1.943607
-17.000000, 8.000000, 1.987523
-17.000000, 8.500000, 2.034364
-17.000000, 9.000000, 2.084141
-17.000000, 9.500000, 2.136868
-17.000000, 10.000000, 2.192556
-17.000000, 10.500000, 2.251218
-17.000000, 11.000000, 2.312864
-17.000000, 11.500000, 2.377509
-17.000000, 12.000000, 2.445163
-17.000000, 12.500000, 2.515838
-17.000000, 13.000000, 2.589546
-17.000000, 13.500000, 2.666299
-17.000000, 14.000000, 2.746108
-17.000000, 14.500000, 2.828985
-17.000000, 15.000000, 2.914942
-17.000000, 15.500000, 3.00399
-17.000000, 16.000000, 3.09614
-17.000000, 16.500000, 3.191406
-17.000000, 17.000000, 3.289797
-17.000000, 17.500000, 3.391328
-17.000000, 18.000000, 3.496008
-17.000000, 18.500000, 3.603852
-17.000000, 19.000000, 3.71487
-17.000000, 19.500000, 3.829077
-17.000000, 20.000000, 3.946484
-17.000000, 20.500000, 4.067106
-17.000000, 21.000000, 4.190955
-17.000000, 21.500000, 4.318045
-17.000000, 22.000000, 4.448391
-17.000000, 22.500000, 4.582008
-17.000000, 23.000000, 4.718909
-17.000000, 23.500000, 4.859111
-17.000000, 24.000000, 5.00263
-17.000000, 24.500000, 5.149481
-17.000000, 25.000000, 5.299681
-17.000000, 25.500000, 5.453248
-17.000000, 26.000000, 5.6102
-17.000000, 26.500000, 5.770554
-17.000000, 27.000000, 5.934329
-17.000000, 27.500000, 6.101546
-17.000000, 28.000000, 6.272223
-17.000000, 28.500000, 6.446382
-17.000000, 29.000000, 6.624043
-17.000000, 29.500000, 6.805229
-17.000000, 30.000000, 6.989963
-17.000000, 30.500000, 7.178267
-17.000000, 31.000000, 7.370165
-17.000000, 31.500000, 7.565683
-17.000000, 32.000000, 7.764845
-17.000000, 32.500000, 7.967678
-17.000000, 33.000000, 8.174209
-17.000000, 33.500000, 8.384466
-17.000000, 34.000000, 8.598477
-17.000000, 34.500000, 8.816273
-17.000000, 35.000000, 9.037883
-17.000000, 35.500000, 9.263339
-17.000000, 36.000000, 9.492674
-17.000000, 36.500000, 9.72592
-17.000000, 37.000000, 9.963113
-17.000000, 37.500000, 10.204287
-17.000000, 38.000000, 10.44948
-17.000000, 38.500000, 10.698728
-17.000000, 39.000000, 10.952072
-17.000000, 39.500000, 11.20955
-17.000000, 40.000000, 11.471204
-17.000000, 40.500000, 11.737077
-17.000000, 41.000000, 12.007212
-17.000000, 41.500000, 12.281655
-17.000000, 42.000000, 12.560452
-17.000000, 42.500000, 12.843653
-16.500000, -42.500000, 12.735945
-16.500000, -42.000000, 12.453043
-16.500000, -41.500000, 12.174534
-16.500000, -41.000000, 11.900369
-16.500000, -40.500000, 11.630502
-16.500000, -40.000000, 11.364888
-16.500000, -39.500000, 11.103484
-16.500000, -39.000000, 10.846247
-16.500000, -38.500000, 10.593137
-16.500000, -38.000000, 10.344113
-16.500000, -37.500000, 10.099136
-16.500000, -37.000000, 9.858171
-16.500000, -36.500000, 9.621179
-16.500000, -36.000000, 9.388127
-16.500000, -35.500000, 9.158979
-16.500000, -35.000000, 8.933704
-16.500000, -34.500000, 8.712268
-16.500000, -34.000000, 8.494642
-16.500000, -33.500000, 8.280793
-16.500000, -33.000000, 8.070695
-16.500000, -32.500000, 7.864317
-16.500000, -32.000000, 7.661633
-16.500000, -31.500000, 7.462616
-16.500000, -31.000000, 7.26724
-16.500000, -30.500000, 7.07548
-16.500000, -30.000000, 6.887312
-16.500000, -29.500000, 6.702712
-16.500000, -29.000000, 6.521658
-16.500000, -28.500000, 6.344128
-16.500000, -28.000000, 6.170099
-16.500000, -27.500000, 5.999553
-16.500000, -27.000000, 5.832467
-16.500000, -26.500000, 5.668824
-16.500000, -26.000000, 5.508605
-16.500000, -25.500000, 5.35179
-16.500000, -25.000000, 5.198363
-16.500000, -24.500000, 5.048307
-16.500000, -24.000000, 4.901604
-16.500000, -23.500000, 4.758239
-16.500000, -23.000000, 4.618197
-16.500000, -22.500000, 4.481462
-16.500000, -22.000000, 4.34802
-16.500000, -21.500000, 4.217856
-16.500000, -21.000000, 4.090957
-16.500000, -20.500000, 3.967308
-16.500000, -20.000000, 3.846897
-16.500000, -19.500000, 3.729711
-16.500000, -19.000000, 3.615737
-16.500000, -18.500000, 3.504962
-16.500000, -18.000000, 3.397374
-16.500000, -17.500000, 3.292961
-16.500000, -17.000000, 3.19171
-16.500000, -16.500000, 3.093609
-16.500000, -16.000000, 2.998646
-16.500000, -15.500000, 2.906808
-16.500000, -15.000000, 2.818083
-16.500000, -14.500000, 2.732458
-16.500000, -14.000000, 2.64992
-16.500000, -13.500000, 2.570455
-16.500000, -13.000000, 2.49405
-16.500000, -12.500000, 2.420691
-16.500000, -12.000000, 2.350363
-16.500000, -11.500000, 2.28305
-16.500000, -11.000000, 2.218739
-16.500000, -10.500000, 2.157411
-16.500000, -10.000000, 2.099053
-16.500000, -9.500000, 2.043646
-16.500000, -9.000000, 1.991174
-16.500000, -8.500000, 1.941621
-16.500000, -8.000000, 1.894969
-16.500000, -7.500000, 1.851204
-16.500000, -7.000000, 1.810308
-16.500000, -6.500000, 1.772269
-16.500000, -6.000000, 1.737072
-16.500000, -5.500000, 1.704706
-16.500000, -5.000000, 1.675162
-16.500000, -4.500000, 1.648431
-16.500000, -4.000000, 1.624508
-16.500000, -3.500000, 1.603388
-16.500000, -3.000000, 1.585069
-16.500000, -2.500000, 1.569548
-16.500000, -2.000000, 1.556824
-16.500000, -1.500000, 1.546895
-16.500000, -1.000000, 1.539762
-16.500000, -0.500000, 1.535422
-16.500000, 0.000000, 1.533877
-16.500000, 0.500000, 1.535127
-16.500000, 1.000000, 1.539172
-16.500000, 1.500000, 1.546016
-16.500000, 2.000000, 1.555662
-16.500000, 2.500000, 1.568113
-16.500000, 3.000000, 1.583376
-16.500000, 3.500000, 1.601457
-16.500000, 4.000000, 1.622364
-16.500000, 4.500000, 1.646104
-16.500000, 5.000000, 1.672688
-16.500000, 5.500000, 1.702125
-16.500000, 6.000000, 1.734426
-16.500000, 6.500000, 1.769603
-16.500000, 7.000000, 1.807667
-16.500000, 7.500000, 1.848629
-16.500000, 8.000000, 1.892502
-16.500000, 8.500000, 1.939297
-16.500000, 9.000000, 1.989028
-16.500000, 9.500000, 2.041707
-16.500000, 10.000000, 2.097345
-16.500000, 10.500000, 2.155955
-16.500000, 11.000000, 2.217549
-16.500000, 11.500000, 2.282139
-16.500000, 12.000000, 2.349736
-16.500000, 12.500000, 2.420353
-16.500000, 13.000000, 2.494001
-16.500000, 13.500000, 2.570691
-16.500000, 14.000000, 2.650436
-16.500000, 14.500000, 2.733247
-16.500000, 15.000000, 2.819135
-16.500000, 15.500000, 2.908112
-16.500000, 16.000000, 3.000188
-16.500000, 16.500000, 3.095377
-16.500000, 17.000000, 3.193689
-16.500000, 17.500000, 3.295137
-16.500000, 18.000000, 3.399732
-16.500000, 18.500000, 3.507486
-16.500000, 19.000000, 3.618411
-16.500000, 19.500000, 3.732521
-16.500000, 20.000000, 3.849828
-16.500000, 20.500000, 3.970346
-16.500000, 21.000000, 4.094086
-16.500000, 21.500000, 4.221064
-16.500000, 22.000000, 4.351293
-16.500000, 22.500000, 4.484788
-16.500000, 23.000000, 4.621563
-16.500000, 23.500000, 4.761634
-16.500000, 24.000000, 4.905017
-16.500000, 24.500000, 5.051727
-16.500000, 25.000000, 5.201781
-16.500000, 25.500000, 5.355197
-16.500000, 26.000000, 5.511991
-16.500000, 26.500000, 5.672183
-16.500000, 27.000000, 5.835791
-16.500000, 27.500000, 6.002834
-16.500000, 28.000000, 6.173332
-16.500000, 28.500000, 6.347305
-16.500000, 29.000000, 6.524775
-16.500000, 29.500000, 6.705764
-16.500000, 30.000000, 6.890293
-16.500000, 30.500000, 7.078387
-16.500000, 31.000000, 7.270069
-16.500000, 31.500000, 7.465363
-16.500000, 32.000000, 7.664296
-16.500000, 32.500000, 7.866892
-16.500000, 33.000000, 8.07318
-16.500000, 33.500000, 8.283186
-16.500000, 34.000000, 8.496939
-16.500000, 34.500000, 8.71447
-16.500000, 35.000000, 8.935808
-16.500000, 35.500000, 9.160984
-16.500000, 36.000000, 9.390031
-16.500000, 36.500000, 9.622982
-16.500000, 37.000000, 9.859871
-16.500000, 37.500000, 10.100734
-16.500000, 38.000000, 10.345607
-16.500000, 38.500000, 10.594527
-16.500000, 39.000000, 10.847534
-16.500000, 39.500000, 11.104666
-16.500000, 40.000000, 11.365966
-16.500000, 40.500000, 11.631475
-16.500000, 41.000000, 11.901237
-16.500000, 41.500000, 12.175298
-16.500000, 42.000000, 12.453703
-16.500000, 42.500000, 12.736501
-16.000000, -42.500000, 12.632368
-16.000000, -42.000000, 12.349858
-16.000000, -41.500000, 12.071731
-16.000000, -41.000000, 11.797938
-16.000000, -40.500000, 11.528435
-16.000000, -40.000000, 11.263175
-16.000000, -39.500000, 11.002116
-16.000000, -39.000000, 10.745215
-16.000000, -38.500000, 10.492432
-16.000000, -38.000000, 10.243727
-16.000000, -37.500000, 9.999062
-16.000000, -37.000000, 9.758399
-16.000000, -36.500000, 9.521702
-16.000000, -36.000000, 9.288936
-16.000000, -35.500000, 9.060068
-16.000000, -35.000000, 8.835064
-16.000000, -34.500000, 8.613892
-16.000000, -34.000000, 8.396522
-16.000000, -33.500000, 8.182922
-16.000000, -33.000000, 7.973065
-16.000000, -32.500000, 7.766922
-16.000000, -32.000000, 7.564466
-16.000000, -31.500000, 7.365669
-16.000000, -31.000000, 7.170507
