13.500000, -37.000000, 9.44263
13.500000, -36.500000, 9.205161
13.500000, -36.000000, 8.971631
13.500000, -35.500000, 8.742004
13.500000, -35.000000, 8.516247
13.500000, -34.500000, 8.294326
13.500000, -34.000000, 8.076208
13.500000, -33.500000, 7.861862
13.500000, -33.000000, 7.651257
13.500000, -32.500000, 7.444364
13.500000, -32.000000, 7.241154
13.500000, -31.500000, 7.041597
13.500000, -31.000000, 6.845668
13.500000, -30.500000, 6.653338
13.500000, -30.000000, 6.464584
13.500000, -29.500000, 6.279378
13.500000, -29.000000, 6.097697
13.500000, -28.500000, 5.919518
13.500000, -28.000000, 5.744816
13.500000, -27.500000, 5.57357
13.500000, -27.000000, 5.405758
13.500000, -26.500000, 5.241358
13.500000, -26.000000, 5.08035
13.500000, -25.500000, 4.922713
13.500000, -25.000000, 4.76843
13.500000, -24.500000, 4.617479
13.500000, -24.000000, 4.469844
13.500000, -23.500000, 4.325506
13.500000, -23.000000, 4.184449
13.500000, -22.500000, 4.046654
13.500000, -22.000000, 3.912107
13.500000, -21.500000, 3.78079
13.500000, -21.000000, 3.65269
13.500000, -20.500000, 3.527791
13.500000, -20.000000, 3.406078
13.500000, -19.500000, 3.287538
13.500000, -19.000000, 3.172157
13.500000, -18.500000, 3.059922
13.500000, -18.000000, 2.950821
13.500000, -17.500000, 2.844841
13.500000, -17.000000, 2.74197
13.500000, -16.500000, 2.642198
13.500000, -16.000000, 2.545513
13.500000, -15.500000, 2.451904
13.500000, -15.000000, 2.361361
13.500000, -14.500000, 2.273874
13.500000, -14.000000, 2.189434
13.500000, -13.500000, 2.108032
13.500000, -13.000000, 2.029659
13.500000, -12.500000, 1.954307
13.500000, -12.000000, 1.881967
13.500000, -11.500000, 1.812632
13.500000, -11.000000, 1.746294
13.500000, -10.500000, 1.682947
13.500000, -10.000000, 1.622583
13.500000, -9.500000, 1.565197
13.500000, -9.000000, 1.510783
13.500000, -8.500000, 1.459334
13.500000, -8.000000, 1.410845
13.500000, -7.500000, 1.365312
13.500000, -7.000000, 1.32273
13.500000, -6.500000, 1.283093
13.500000, -6.000000, 1.246399
13.500000, -5.500000, 1.212643
13.500000, -5.000000, 1.181822
13.500000, -4.500000, 1.153932
13.500000, -4.000000, 1.128971
13.500000, -3.500000, 1.106937
13.500000, -3.000000, 1.087826
13.500000, -2.500000, 1.071638
13.500000, -2.000000, 1.05837
13.500000, -1.500000, 1.04802
13.500000, -1.000000, 1.040589
13.500000, -0.500000, 1.036075
13.500000, 0.000000, 1.034478
13.500000, 0.500000, 1.035797
13.500000, 1.000000, 1.040033
13.500000, 1.500000, 1.047186
13.500000, 2.000000, 1.057257
13.500000, 2.500000, 1.070247
13.500000, 3.000000, 1.086157
13.500000, 3.500000, 1.104989
13.500000, 4.000000, 1.126745
13.500000, 4.500000, 1.151426
13.500000, 5.000000, 1.179037
13.500000, 5.500000, 1.209578
13.500000, 6.000000, 1.243054
13.500000, 6.500000, 1.279468
13.500000, 7.000000, 1.318824
13.500000, 7.500000, 1.361126
13.500000, 8.000000, 1.406377
13.500000, 8.500000, 1.454584
13.500000, 9.000000, 1.50575
13.500000, 9.500000, 1.559882
13.500000, 10.000000, 1.616985
13.500000, 10.500000, 1.677064
13.500000, 11.000000, 1.740127
13.500000, 11.500000, 1.806179
13.500000, 12.000000, 1.875228
13.500000, 12.500000, 1.947281
13.500000, 13.000000, 2.022346
13.500000, 13.500000, 2.100431
13.500000, 14.000000, 2.181544
13.500000, 14.500000, 2.265693
13.500000, 15.000000, 2.352889
13.500000, 15.500000, 2.44314
13.500000, 16.000000, 2.536456
13.500000, 16.500000, 2.632848
13.500000, 17.000000, 2.732326
13.500000, 17.500000, 2.834901
13.500000, 18.000000, 2.940584
13.500000, 18.500000, 3.049387
13.500000, 19.000000, 3.161322
13.500000, 19.500000, 3.276403
13.500000, 20.000000, 3.394641
13.500000, 20.500000, 3.516051
13.500000, 21.000000, 3.640646
13.500000, 21.500000, 3.76844
13.500000, 22.000000, 3.899449
13.500000, 22.500000, 4.033688
13.500000, 23.000000, 4.171172
13.500000, 23.500000, 4.311918
13.500000, 24.000000, 4.455943
13.500000, 24.500000, 4.603263
13.500000, 25.000000, 4.753896
13.500000, 25.500000, 4.907862
13.500000, 26.000000, 5.065177
13.500000, 26.500000, 5.225863
13.500000, 27.000000, 5.389939
13.500000, 27.500000, 5.557425
13.500000, 28.000000, 5.728343
13.500000, 28.500000, 5.902714
13.500000, 29.000000, 6.080561
13.500000, 29.500000, 6.261907
13.500000, 30.000000, 6.446776
13.500000, 30.500000, 6.635191
13.500000, 31.000000, 6.827178
13.500000, 31.500000, 7.022763
13.500000, 32.000000, 7.221973
13.500000, 32.500000, 7.424834
13.500000, 33.000000, 7.631375
13.500000, 33.500000, 7.841625
13.500000, 34.000000, 8.055613
13.500000, 34.500000, 8.27337
13.500000, 35.000000, 8.494927
13.500000, 35.500000, 8.720317
13.500000, 36.000000, 8.949573
13.500000, 36.500000, 9.18273
13.500000, 37.000000, 9.419822
13.500000, 37.500000, 9.660886
13.500000, 38.000000, 9.90596
13.500000, 38.500000, 10.155081
13.500000, 39.000000, 10.40829
13.500000, 39.500000, 10.665627
13.500000, 40.000000, 10.927134
13.500000, 40.500000, 11.192855
13.500000, 41.000000, 11.462834
13.500000, 41.500000, 11.737117
13.500000, 42.000000, 12.015752
13.500000, 42.500000, 12.298787
14.000000, -42.500000, 12.417358
14.000000, -42.000000, 12.133554
14.000000, -41.500000, 11.854162
14.000000, -41.000000, 11.579135
14.000000, -40.500000, 11.308424
14.000000, -40.000000, 11.041982
14.000000, -39.500000, 10.779766
14.000000, -39.000000, 10.521731
14.000000, -38.500000, 10.267835
14.000000, -38.000000, 10.018037
14.000000, -37.500000, 9.772297
14.000000, -37.000000, 9.530577
14.000000, -36.500000, 9.292838
14.000000, -36.000000, 9.059044
14.000000, -35.500000, 8.82916
14.000000, -35.000000, 8.603151
14.000000, -34.500000, 8.380984
14.000000, -34.000000, 8.162625
14.000000, -33.500000, 7.948044
14.000000, -33.000000, 7.73721
14.000000, -32.500000, 7.530092
14.000000, -32.000000, 7.326662
14.000000, -31.500000, 7.126892
14.000000, -31.000000, 6.930753
14.000000, -30.500000, 6.738219
14.000000, -30.000000, 6.549264
14.000000, -29.500000, 6.363864
14.000000, -29.000000, 6.181993
14.000000, -28.500000, 6.003627
14.000000, -28.000000, 5.828744
14.000000, -27.500000, 5.65732
14.000000, -27.000000, 5.489335
14.000000, -26.500000, 5.324766
14.000000, -26.000000, 5.163594
14.000000, -25.500000, 5.005797
14.000000, -25.000000, 4.851357
14.000000, -24.500000, 4.700254
14.000000, -24.000000, 4.55247
14.000000, -23.500000, 4.407987
14.000000, -23.000000, 4.266789
14.000000, -22.500000, 4.128857
14.000000, -22.000000, 3.994176
14.000000, -21.500000, 3.862729
14.000000, -21.000000, 3.734502
14.000000, -20.500000, 3.60948
14.000000, -20.000000, 3.487648
14.000000, -19.500000, 3.368992
14.000000, -19.000000, 3.253499
14.000000, -18.500000, 3.141155
14.000000, -18.000000, 3.031948
14.000000, -17.500000, 2.925865
14.000000, -17.000000, 2.822895
14.000000, -16.500000, 2.723027
14.000000, -16.000000, 2.626248
14.000000, -15.500000, 2.53255
14.000000, -15.000000, 2.44192
14.000000, -14.500000, 2.35435
14.000000, -14.000000, 2.26983
14.000000, -13.500000, 2.188351
14.000000, -13.000000, 2.109903
14.000000, -12.500000, 2.034479
14.000000, -12.000000, 1.962071
14.000000, -11.500000, 1.89267
14.000000, -11.000000, 1.82627
14.000000, -10.500000, 1.762863
14.000000, -10.000000, 1.702443
14.000000, -9.500000, 1.645003
14.000000, -9.000000, 1.590538
14.000000, -8.500000, 1.539041
14.000000, -8.000000, 1.490507
14.000000, -7.500000, 1.444931
14.000000, -7.000000, 1.402309
14.000000, -6.500000, 1.362635
14.000000, -6.000000, 1.325907
14.000000, -5.500000, 1.292119
14.000000, -5.000000, 1.26127
14.000000, -4.500000, 1.233354
14.000000, -4.000000, 1.20837
14.000000, -3.500000, 1.186315
14.000000, -3.000000, 1.167187
14.000000, -2.500000, 1.150983
14.000000, -2.000000, 1.137703
14.000000, -1.500000, 1.127344
14.000000, -1.000000, 1.119906
14.000000, -0.500000, 1.115388
14.000000, 0.000000, 1.113789
14.000000, 0.500000, 1.11511
14.000000, 1.000000, 1.11935
14.000000, 1.500000, 1.126509
14.000000, 2.000000, 1.13659
14.000000, 2.500000, 1.149591
14.000000, 3.000000, 1.165516
14.000000, 3.500000, 1.184366
14.000000, 4.000000, 1.206142
14.000000, 4.500000, 1.230846
14.000000, 5.000000, 1.258482
14.000000, 5.500000, 1.289052
14.000000, 6.000000, 1.322559
14.000000, 6.500000, 1.359007
14.000000, 7.000000, 1.3984
14.000000, 7.500000, 1.440741
14.000000, 8.000000, 1.486035
14.000000, 8.500000, 1.534286
14.000000, 9.000000, 1.585501
14.000000, 9.500000, 1.639683
14.000000, 10.000000, 1.696839
14.000000, 10.500000, 1.756975
14.000000, 11.000000, 1.820097
14.000000, 11.500000, 1.886211
14.000000, 12.000000, 1.955326
14.000000, 12.500000, 2.027447
14.000000, 13.000000, 2.102583
14.000000, 13.500000, 2.180742
14.000000, 14.000000, 2.261932
14.000000, 14.500000, 2.346162
14.000000, 15.000000, 2.433441
14.000000, 15.500000, 2.523778
14.000000, 16.000000, 2.617184
14.000000, 16.500000, 2.713668
14.000000, 17.000000, 2.813241
14.000000, 17.500000, 2.915915
14.000000, 18.000000, 3.0217
14.000000, 18.500000, 3.130609
14.000000, 19.000000, 3.242654
14.000000, 19.500000, 3.357846
14.000000, 20.000000, 3.4762
14.000000, 20.500000, 3.597729
14.000000, 21.000000, 3.722446
14.000000, 21.500000, 3.850367
14.000000, 22.000000, 3.981506
14.000000, 22.500000, 4.115878
14.000000, 23.000000, 4.253499
14.000000, 23.500000, 4.394386
14.000000, 24.000000, 4.538555
14.000000, 24.500000, 4.686023
14.000000, 25.000000, 4.836809
14.000000, 25.500000, 4.99093
14.000000, 26.000000, 5.148406
14.000000, 26.500000, 5.309256
14.000000, 27.000000, 5.4735
14.000000, 27.500000, 5.641159
14.000000, 28.000000, 5.812254
14.000000, 28.500000, 5.986806
14.000000, 29.000000, 6.164839
14.000000, 29.500000, 6.346375
14.000000, 30.000000, 6.531438
14.000000, 30.500000, 6.720052
14.000000, 31.000000, 6.912244
14.000000, 31.500000, 7.108038
14.000000, 32.000000, 7.307461
14.000000, 32.500000, 7.510541
14.000000, 33.000000, 7.717306
14.000000, 33.500000, 7.927785
14.000000, 34.000000, 8.142007
14.000000, 34.500000, 8.360004
14.000000, 35.000000, 8.581807
14.000000, 35.500000, 8.807449
14.000000, 36.000000, 9.036962
14.000000, 36.500000, 9.270381
14.000000, 37.000000, 9.507742
14.000000, 37.500000, 9.749082
14.000000, 38.000000, 9.994437
14.000000, 38.500000, 10.243846
14.000000, 39.000000, 10.49735
14.000000, 39.500000, 10.754988
14.000000, 40.000000, 11.016804
14.000000, 40.500000, 11.282841
14.000000, 41.000000, 11.553143
14.000000, 41.500000, 11.827757
14.000000, 42.000000, 12.10673
14.000000, 42.500000, 12.390112
14.500000, -42.500000, 12.512196
14.500000, -42.000000, 12.22803
14.500000, -41.500000, 11.948286
14.500000, -41.000000, 11.672914
14.500000, -40.500000, 11.401866
14.500000, -40.000000, 11.135095
14.500000, -39.500000, 10.872557
14.500000, -39.000000, 10.614207
14.500000, -38.500000, 10.360004
14.500000, -38.000000, 10.109906
14.500000, -37.500000, 9.863872
14.500000, -37.000000, 9.621865
14.500000, -36.500000, 9.383845
14.500000, -36.000000, 9.149777
14.500000, -35.500000, 8.919625
14.500000, -35.000000, 8.693354
14.500000, -34.500000, 8.470931
14.500000, -34.000000, 8.252323
14.500000, -33.500000, 8.037497
14.500000, -33.000000, 7.826424
14.500000, -32.500000, 7.619073
14.500000, -32.000000, 7.415414
14.500000, -31.500000, 7.215421
14.500000, -31.000000, 7.019064
14.500000, -30.500000, 6.826318
14.500000, -30.000000, 6.637155
14.500000, -29.500000, 6.451552
14.500000, -29.000000, 6.269482
14.500000, -28.500000, 6.090923
14.500000, -28.000000, 5.915851
14.500000, -27.500000, 5.744244
14.500000, -27.000000, 5.576078
14.500000, -26.500000, 5.411334
14.500000, -26.000000, 5.24999
14.500000, -25.500000, 5.092027
14.500000, -25.000000, 4.937423
14.500000, -24.500000, 4.786162
14.500000, -24.000000, 4.638223
14.500000, -23.500000, 4.49359
14.500000, -23.000000, 4.352245
14.500000, -22.500000, 4.21417
14.500000, -22.000000, 4.07935
14.500000, -21.500000, 3.947769
14.500000, -21.000000, 3.81941
14.500000, -20.500000, 3.69426
14.500000, -20.000000, 3.572304
14.500000, -19.500000, 3.453527
14.500000, -19.000000, 3.337917
14.500000, -18.500000, 3.225459
14.500000, -18.000000, 3.116142
14.500000, -17.500000, 3.009953
14.500000, -17.000000, 2.90688
14.500000, -16.500000, 2.806911
14.500000, -16.000000, 2.710036
14.500000, -15.500000, 2.616244
14.500000, -15.000000, 2.525525
14.500000, -14.500000, 2.437868
14.500000, -14.000000, 2.353264
14.500000, -13.500000, 2.271704
14.500000, -13.000000, 2.19318
14.500000, -12.500000, 2.117682
14.500000, -12.000000, 2.045202
14.500000, -11.500000, 1.975733
14.500000, -11.000000, 1.909268
14.500000, -10.500000, 1.845799
14.500000, -10.000000, 1.78532
14.500000, -9.500000, 1.727824
14.500000, -9.000000, 1.673306
14.500000, -8.500000, 1.621759
14.500000, -8.000000, 1.573178
14.500000, -7.500000, 1.527558
14.500000, -7.000000, 1.484894
14.500000, -6.500000, 1.445182
14.500000, -6.000000, 1.408418
14.500000, -5.500000, 1.374598
14.500000, -5.000000, 1.343719
14.500000, -4.500000, 1.315776
14.500000, -4.000000, 1.290768
14.500000, -3.500000, 1.268692
14.500000, -3.000000, 1.249545
14.500000, -2.500000, 1.233326
14.500000, -2.000000, 1.220033
14.500000, -1.500000, 1.209664
14.500000, -1.000000, 1.202219
14.500000, -0.500000, 1.197696
14.500000, 0.000000, 1.196096
14.500000, 0.500000, 1.197418
14.500000, 1.000000, 1.201662
14.500000, 1.500000, 1.208828
14.500000, 2.000000, 1.218918
14.500000, 2.500000, 1.231933
14.500000, 3.000000, 1.247873
14.500000, 3.500000, 1.26674
14.500000, 4.000000, 1.288537
14.500000, 4.500000, 1.313266
14.500000, 5.000000, 1.340928
14.500000, 5.500000, 1.371528
14.500000, 6.000000, 1.405067
14.500000, 6.500000, 1.441551
14.500000, 7.000000, 1.480981
14.500000, 7.500000, 1.523363
14.500000, 8.000000, 1.568701
14.500000, 8.500000, 1.617
14.500000, 9.000000, 1.668264
14.500000, 9.500000, 1.722499
14.500000, 10.000000, 1.779711
14.500000, 10.500000, 1.839905
14.500000, 11.000000, 1.903089
14.500000, 11.500000, 1.969268
14.500000, 12.000000, 2.03845
14.500000, 12.500000, 2.110642
14.500000, 13.000000, 2.185852
14.500000, 13.500000, 2.264088
14.500000, 14.000000, 2.345358
14.500000, 14.500000, 2.429671
14.500000, 15.000000, 2.517037
14.500000, 15.500000, 2.607464
14.500000, 16.000000, 2.700963
14.500000, 16.500000, 2.797543
14.500000, 17.000000, 2.897216
14.500000, 17.500000, 2.999993
14.500000, 18.000000, 3.105885
14.500000, 18.500000, 3.214903
14.500000, 19.000000, 3.327061
14.500000, 19.500000, 3.44237
14.500000, 20.000000, 3.560844
14.500000, 20.500000, 3.682497
14.500000, 21.000000, 3.807342
14.500000, 21.500000, 3.935394
14.500000, 22.000000, 4.066667
14.500000, 22.500000, 4.201178
14.500000, 23.000000, 4.338942
14.500000, 23.500000, 4.479975
14.500000, 24.000000, 4.624294
14.500000, 24.500000, 4.771916
14.500000, 25.000000, 4.92286
14.500000, 25.500000, 5.077144
14.500000, 26.000000, 5.234786
14.500000, 26.500000, 5.395807
14.500000, 27.000000, 5.560226
14.500000, 27.500000, 5.728065
14.500000, 28.000000, 5.899343
14.500000, 28.500000, 6.074084
14.500000, 29.000000, 6.25231
14.500000, 29.500000, 6.434043
14.500000, 30.000000, 6.619309
14.500000, 30.500000, 6.808131
14.500000, 31.000000, 7.000535
14.500000, 31.500000, 7.196546
14.500000, 32.000000, 7.396192
14.500000, 32.500000, 7.599499
14.500000, 33.000000, 7.806497
14.500000, 33.500000, 8.017215
14.500000, 34.000000, 8.231681
14.500000, 34.500000, 8.449928
14.500000, 35.000000, 8.671986
14.500000, 35.500000, 8.897889
14.500000, 36.000000, 9.127669
14.500000, 36.500000, 9.361362
14.500000, 37.000000, 9.599003
14.500000, 37.500000, 9.840629
14.500000, 38.000000, 10.086277
14.500000, 38.500000, 10.335986
14.500000, 39.000000, 10.589797
14.500000, 39.500000, 10.847749
14.500000, 40.000000, 11.109886
14.500000, 40.500000, 11.376251
14.500000, 41.000000, 11.646889
14.500000, 41.500000, 11.921847
14.500000, 42.000000, 12.201173
14.500000, 42.500000, 12.484914
15.000000, -42.500000, 12.610526
15.000000, -42.000000, 12.325985
15.000000, -41.500000, 12.045874
15.000000, -41.000000, 11.770144
15.000000, -40.500000, 11.498745
15.000000, -40.000000, 11.231633
15.000000, -39.500000, 10.96876
15.000000, -39.000000, 10.710084
15.000000, -38.500000, 10.455561
15.000000, -38.000000, 10.205151
15.000000, -37.500000, 9.958812
15.000000, -37.000000, 9.716506
15.000000, -36.500000, 9.478195
15.000000, -36.000000, 9.243842
15.000000, -35.500000, 9.013412
15.000000, -35.000000, 8.786869
15.000000, -34.500000, 8.564179
15.000000, -34.000000, 8.345311
15.000000, -33.500000, 8.130231
15.000000, -33.000000, 7.91891
15.000000, -32.500000, 7.711316
15.000000, -32.000000, 7.50742
15.000000, -31.500000, 7.307195
15.000000, -31.000000, 7.110612
15.000000, -30.500000, 6.917645
15.000000, -30.000000, 6.728267
15.000000, -29.500000, 6.542452
15.000000, -29.000000, 6.360177
15.000000, -28.500000, 6.181417
15.000000, -28.000000, 6.006149
15.000000, -27.500000, 5.83435
15.000000, -27.000000, 5.665997
15.000000, -26.500000, 5.501071
15.000000, -26.000000, 5.339549
15.000000, -25.500000, 5.181412
15.000000, -25.000000, 5.02664
15.000000, -24.500000, 4.875213
15.000000, -24.000000, 4.727114
15.000000, -23.500000, 4.582325
15.000000, -23.000000, 4.440827
15.000000, -22.500000, 4.302604
15.000000, -22.000000, 4.167639
15.000000, -21.500000, 4.035918
15.000000, -21.000000, 3.907423
15.000000, -20.500000, 3.78214
15.000000, -20.000000, 3.660054
15.000000, -19.500000, 3.541153
15.000000, -19.000000, 3.425421
15.000000, -18.500000, 3.312845
15.000000, -18.000000, 3.203414
15.000000, -17.500000, 3.097114
15.000000, -17.000000, 2.993933
15.000000, -16.500000, 2.893861
15.000000, -16.000000, 2.796886
15.000000, -15.500000, 2.702997
15.000000, -15.000000, 2.612184
15.000000, -14.500000, 2.524437
15.000000, -14.000000, 2.439746
15.000000, -13.500000, 2.358103
15.000000, -13.000000, 2.279498
15.000000, -12.500000, 2.203923
15.000000, -12.000000, 2.131369
15.000000, -11.500000, 2.06183
15.000000, -11.000000, 1.995297
15.000000, -10.500000, 1.931764
15.000000, -10.000000, 1.871223
15.000000, -9.500000, 1.813669
15.000000, -9.000000, 1.759096
15.000000, -8.500000, 1.707497
15.000000, -8.000000, 1.658867
15.000000, -7.500000, 1.613201
15.000000, -7.000000, 1.570494
15.000000, -6.500000, 1.530743
15.000000, -6.000000, 1.493942
15.000000, -5.500000, 1.460088
15.000000, -5.000000, 1.429177
15.000000, -4.500000, 1.401207
15.000000, -4.000000, 1.376174
15.000000, -3.500000, 1.354076
15.000000, -3.000000, 1.33491
15.000000, -2.500000, 1.318674
15.000000, -2.000000, 1.305368
15.000000, -1.500000, 1.294989
15.000000, -1.000000, 1.287536
15.000000, -0.500000, 1.283009
15.000000, 0.000000, 1.281407
15.000000, 0.500000, 1.28273
15.000000, 1.000000, 1.286978
15.000000, 1.500000, 1.294152
15.000000, 2.000000, 1.304252
15.000000, 2.500000, 1.31728
15.000000, 3.000000, 1.333236
15.000000, 3.500000, 1.352122
15.000000, 4.000000, 1.373941
15.000000, 4.500000, 1.398694
15.000000, 5.000000, 1.426384
15.000000, 5.500000, 1.457014
15.000000, 6.000000, 1.490588
15.000000, 6.500000, 1.527107
15.000000, 7.000000, 1.566578
15.000000, 7.500000, 1.609002
15.000000, 8.000000, 1.654386
15.000000, 8.500000, 1.702733
15.000000, 9.000000, 1.754049
15.000000, 9.500000, 1.808339
15.000000, 10.000000, 1.865608
15.000000, 10.500000, 1.925864
15.000000, 11.000000, 1.989111
15.000000, 11.500000, 2.055358
15.000000, 12.000000, 2.12461
15.000000, 12.500000, 2.196876
15.000000, 13.000000, 2.272163
15.000000, 13.500000, 2.350479
15.000000, 14.000000, 2.431832
15.000000, 14.500000, 2.516232
15.000000, 15.000000, 2.603687
15.000000, 15.500000, 2.694207
15.000000, 16.000000, 2.787803
15.000000, 16.500000, 2.884483
15.000000, 17.000000, 2.98426
15.000000, 17.500000, 3.087143
15.000000, 18.000000, 3.193145
15.000000, 18.500000, 3.302278
15.000000, 19.000000, 3.414553
15.000000, 19.500000, 3.529984
15.000000, 20.000000, 3.648583
15.000000, 20.500000, 3.770364
15.000000, 21.000000, 3.895341
15.000000, 21.500000, 4.023529
15.000000, 22.000000, 4.154943
15.000000, 22.500000, 4.289598
15.000000, 23.000000, 4.427509
15.000000, 23.500000, 4.568694
15.000000, 24.000000, 4.71317
15.000000, 24.500000, 4.860952
15.000000, 25.000000, 5.012061
15.000000, 25.500000, 5.166513
15.000000, 26.000000, 5.324329
15.000000, 26.500000, 5.485527
15.000000, 27.000000, 5.650128
15.000000, 27.500000, 5.818153
15.000000, 28.000000, 5.989622
15.000000, 28.500000, 6.164559
15.000000, 29.000000, 6.342985
15.000000, 29.500000, 6.524924
15.000000, 30.000000, 6.7104
15.000000, 30.500000, 6.899437
15.000000, 31.000000, 7.092062
15.000000, 31.500000, 7.288299
15.000000, 32.000000, 7.488176
15.000000, 32.500000, 7.69172
15.000000, 33.000000, 7.89896
15.000000, 33.500000, 8.109925
15.000000, 34.000000, 8.324645
15.000000, 34.500000, 8.543151
15.000000, 35.000000, 8.765474
15.000000, 35.500000, 8.991649
15.000000, 36.000000, 9.221707
15.000000, 36.500000, 9.455685
15.000000, 37.000000, 9.693617
15.000000, 37.500000, 9.93554
15.000000, 38.000000, 10.181493
15.000000, 38.500000, 10.431513
15.000000, 39.000000, 10.685642
15.000000, 39.500000, 10.943921
15.000000, 40.000000, 11.206391
15.000000, 40.500000, 11.473098
15.000000, 41.000000, 11.744086
15.000000, 41.500000, 12.019401
15.000000, 42.000000, 12.299093
15.000000, 42.500000, 12.583209
15.500000, -42.500000, 12.712364
15.500000, -42.000000, 12.427433
15.500000, -41.500000, 12.146941
15.500000, -41.000000, 11.870839
15.500000, -40.500000, 11.599077
15.500000, -40.000000, 11.331609
15.500000, -39.500000, 11.068389
15.500000, -39.000000, 10.809373
15.500000, -38.500000, 10.554519
15.500000, -38.000000, 10.303784
15.500000, -37.500000, 10.057129
15.500000, -37.000000, 9.814513
15.500000, -36.500000, 9.5759
15.500000, -36.000000, 9.341251
15.500000, -35.500000, 9.110531
15.500000, -35.000000, 8.883706
15.500000, -34.500000, 8.66074
15.500000, -34.000000, 8.441602
15.500000, -33.500000, 8.226258
15.500000, -33.000000, 8.014679
15.500000, -32.500000, 7.806833
15.500000, -32.000000, 7.602692
15.500000, -31.500000, 7.402226
15.500000, -31.000000, 7.205409
15.500000, -30.500000, 7.012212
15.500000, -30.000000, 6.822609
15.500000, -29.500000, 6.636576
15.500000, -29.000000, 6.454087
15.500000, -28.500000, 6.275119
15.500000, -28.000000, 6.099647
15.500000, -27.500000, 5.927649
15.500000, -27.000000, 5.759103
15.500000, -26.500000, 5.593987
15.500000, -26.000000, 5.432281
15.500000, -25.500000, 5.273964
15.500000, -25.000000, 5.119016
15.500000, -24.500000, 4.967419
15.500000, -24.000000, 4.819153
15.500000, -23.500000, 4.674201
15.500000, -23.000000, 4.532545
15.500000, -22.500000, 4.394168
15.500000, -22.000000, 4.259054
15.500000, -21.500000, 4.127186
15.500000, -21.000000, 3.99855
15.500000, -20.500000, 3.873129
15.500000, -20.000000, 3.75091
15.500000, -19.500000, 3.631878
15.500000, -19.000000, 3.51602
15.500000, -18.500000, 3.403322
15.500000, -18.000000, 3.293772
15.500000, -17.500000, 3.187357
15.500000, -17.000000, 3.084065
15.500000, -16.500000, 2.983885
15.500000, -16.000000, 2.886806
15.500000, -15.500000, 2.792817
15.500000, -15.000000, 2.701906
15.500000, -14.500000, 2.614066
15.500000, -14.000000, 2.529285
15.500000, -13.500000, 2.447555
15.500000, -13.000000, 2.368867
15.500000, -12.500000, 2.293211
15.500000, -12.000000, 2.220581
15.500000, -11.500000, 2.150969
15.500000, -11.000000, 2.084366
15.500000, -10.500000, 2.020766
15.500000, -10.000000, 1.960162
15.500000, -9.500000, 1.902548
15.500000, -9.000000, 1.847917
15.500000, -8.500000, 1.796264
15.500000, -8.000000, 1.747583
15.500000, -7.500000, 1.70187
15.500000, -7.000000, 1.659119
15.500000, -6.500000, 1.619326
15.500000, -6.000000, 1.582486
15.500000, -5.500000, 1.548597
15.500000, -5.000000, 1.517655
15.500000, -4.500000, 1.489655
15.500000, -4.000000, 1.464596
15.500000, -3.500000, 1.442475
15.500000, -3.000000, 1.423289
15.500000, -2.500000, 1.407037
15.500000, -2.000000, 1.393717
15.500000, -1.500000, 1.383327
15.500000, -1.000000, 1.375867
15.500000, -0.500000, 1.371335
15.500000, 0.000000, 1.369731
15.500000, 0.500000, 1.371056
15.500000, 1.000000, 1.375308
15.500000, 1.500000, 1.382489
15.500000, 2.000000, 1.3926
15.500000, 2.500000, 1.405641
15.500000, 3.000000, 1.421613
15.500000, 3.500000, 1.440519
15.500000, 4.000000, 1.462361
15.500000, 4.500000, 1.48714
15.500000, 5.000000, 1.514859
15.500000, 5.500000, 1.545521
15.500000, 6.000000, 1.579129
15.500000, 6.500000, 1.615686
15.500000, 7.000000, 1.655198
15.500000, 7.500000, 1.697667
15.500000, 8.000000, 1.743097
15.500000, 8.500000, 1.791495
15.500000, 9.000000, 1.842865
15.500000, 9.500000, 1.897211
15.500000, 10.000000, 1.954541
15.500000, 10.500000, 2.01486
15.500000, 11.000000, 2.078174
15.500000, 11.500000, 2.14449
15.500000, 12.000000, 2.213815
15.500000, 12.500000, 2.286157
15.500000, 13.000000, 2.361524
15.500000, 13.500000, 2.439923
15.500000, 14.000000, 2.521363
15.500000, 14.500000, 2.605852
15.500000, 15.000000, 2.693401
15.500000, 15.500000, 2.784018
15.500000, 16.000000, 2.877713
15.500000, 16.500000, 2.974498
15.500000, 17.000000, 3.074381
15.500000, 17.500000, 3.177376
15.500000, 18.000000, 3.283493
15.500000, 18.500000, 3.392743
15.500000, 19.000000, 3.50514
15.500000, 19.500000, 3.620697
15.500000, 20.000000, 3.739426
15.500000, 20.500000, 3.86134
15.500000, 21.000000, 3.986455
15.500000, 21.500000, 4.114784
15.500000, 22.000000, 4.246343
15.500000, 22.500000, 4.381148
15.500000, 23.000000, 4.519213
15.500000, 23.500000, 4.660555
15.500000, 24.000000, 4.805192
15.500000, 24.500000, 4.953141
15.500000, 25.000000, 5.10442
15.500000, 25.500000, 5.259048
15.500000, 26.000000, 5.417043
15.500000, 26.500000, 5.578425
15.500000, 27.000000, 5.743215
15.500000, 27.500000, 5.911433
15.500000, 28.000000, 6.083101
15.500000, 28.500000, 6.258241
15.500000, 29.000000, 6.436875
15.500000, 29.500000, 6.619028
15.500000, 30.000000, 6.804722
15.500000, 30.500000, 6.993983
15.500000, 31.000000, 7.186836
15.500000, 31.500000, 7.383307
15.500000, 32.000000, 7.583424
15.500000, 32.500000, 7.787214
15.500000, 33.000000, 7.994705
15.500000, 33.500000, 8.205927
15.500000, 34.000000, 8.42091
15.500000, 34.500000, 8.639686
15.500000, 35.000000, 8.862285
15.500000, 35.500000, 9.088741
15.500000, 36.000000, 9.319088
15.500000, 36.500000, 9.553361
15.500000, 37.000000, 9.791595
15.500000, 37.500000, 10.033827
15.500000, 38.000000, 10.280096
15.500000, 38.500000, 10.53044
15.500000, 39.000000, 10.7849
15.500000, 39.500000, 11.043517
15.500000, 40.000000, 11.306334
15.500000, 40.500000, 11.573395
15.500000, 41.000000, 11.844746
15.500000, 41.500000, 12.120432
15.500000, 42.000000, 12.400504
15.500000, 42.500000, 12.685009
16.000000, -42.500000, 12.817723
16.000000, -42.000000, 12.532388
16.000000, -41.500000, 12.251501
16.000000, -41.000000, 11.975012
16.000000, -40.500000, 11.702873
16.000000, -40.000000, 11.435036
16.000000, -39.500000, 11.171456
16.000000, -39.000000, 10.912089
16.000000, -38.500000, 10.65689
16.000000, -38.000000, 10.405819
16.000000, -37.500000, 10.158835
16.000000, -37.000000, 9.915899
16.000000, -36.500000, 9.676971
16.000000, -36.000000, 9.442016
16.000000, -35.500000, 9.210996
16.000000, -35.000000, 8.983878
16.000000, -34.500000, 8.760626
16.000000, -34.000000, 8.541208
16.000000, -33.500000, 8.325591
16.000000, -33.000000, 8.113744
16.000000, -32.500000, 7.905637
16.000000, -32.000000, 7.701241
16.000000, -31.500000, 7.500526
16.000000, -31.000000, 7.303465
16.000000, -30.500000, 7.11003
16.000000, -30.000000, 6.920195
16.000000, -29.500000, 6.733935
16.000000, -29.000000, 6.551225
16.000000, -28.500000, 6.37204
16.000000, -28.000000, 6.196357
16.000000, -27.500000, 6.024153
16.000000, -27.000000, 5.855406
16.000000, -26.500000, 5.690094
16.000000, -26.000000, 5.528196
16.000000, -25.500000, 5.369693
16.000000, -25.000000, 5.214563
16.000000, -24.500000, 5.062788
16.000000, -24.000000, 4.91435
16.000000, -23.500000, 4.76923
16.000000, -23.000000, 4.62741
16.000000, -22.500000, 4.488873
16.000000, -22.000000, 4.353604
16.000000, -21.500000, 4.221585
16.000000, -21.000000, 4.092801
16.000000, -20.500000, 3.967238
16.000000, -20.000000, 3.84488
16.000000, -19.500000, 3.725714
16.000000, -19.000000, 3.609725
16.000000, -18.500000, 3.4969
16.000000, -18.000000, 3.387227
16.000000, -17.500000, 3.280693
16.000000, -17.000000, 3.177286
16.000000, -16.500000, 3.076994
16.000000, -16.000000, 2.979807
16.000000, -15.500000, 2.885713
16.000000, -15.000000, 2.794703
16.000000, -14.500000, 2.706765
16.000000, -14.000000, 2.621891
16.000000, -13.500000, 2.540071
16.000000, -13.000000, 2.461296
16.000000, -12.500000, 2.385558
16.000000, -12.000000, 2.312849
16.000000, -11.500000, 2.24316
16.000000, -11.000000, 2.176485
16.000000, -10.500000, 2.112815
16.000000, -10.000000, 2.052146
16.000000, -9.500000, 1.994469
16.000000, -9.000000, 1.939779
16.000000, -8.500000, 1.88807
16.000000, -8.000000, 1.839336
16.000000, -7.500000, 1.793573
16.000000, -7.000000, 1.750776
16.000000, -6.500000, 1.71094
16.000000, -6.000000, 1.674062
16.000000, -5.500000, 1.640136
16.000000, -5.000000, 1.60916
16.000000, -4.500000, 1.581131
16.000000, -4.000000, 1.556045
16.000000, -3.500000, 1.5339
16.000000, -3.000000, 1.514693
16.000000, -2.500000, 1.498424
16.000000, -2.000000, 1.485089
16.000000, -1.500000, 1.474688
16.000000, -1.000000, 1.46722
16.000000, -0.500000, 1.462683
16.000000, 0.000000, 1.461078
16.000000, 0.500000, 1.462404
16.000000, 1.000000, 1.466661
16.000000, 1.500000, 1.47385
16.000000, 2.000000, 1.483971
16.000000, 2.500000, 1.497026
16.000000, 3.000000, 1.513016
16.000000, 3.500000, 1.531942
16.000000, 4.000000, 1.553807
16.000000, 4.500000, 1.578612
16.000000, 5.000000, 1.606361
16.000000, 5.500000, 1.637056
16.000000, 6.000000, 1.6707
16.000000, 6.500000, 1.707297
16.000000, 7.000000, 1.746851
16.000000, 7.500000, 1.789366
16.000000, 8.000000, 1.834846
16.000000, 8.500000, 1.883296
16.000000, 9.000000, 1.934721
16.000000, 9.500000, 1.989126
16.000000, 10.000000, 2.046518
16.000000, 10.500000, 2.106903
16.000000, 11.000000, 2.170286
16.000000, 11.500000, 2.236674
16.000000, 12.000000, 2.306075
16.000000, 12.500000, 2.378496
16.000000, 13.000000, 2.453945
16.000000, 13.500000, 2.53243
16.000000, 14.000000, 2.61396
16.000000, 14.500000, 2.698542
16.000000, 15.000000, 2.786187
16.000000, 15.500000, 2.876905
16.000000, 16.000000, 2.970704
16.000000, 16.500000, 3.067596
16.000000, 17.000000, 3.167591
16.000000, 17.500000, 3.270701
16.000000, 18.000000, 3.376936
16.000000, 18.500000, 3.486309
16.000000, 19.000000, 3.598833
16.000000, 19.500000, 3.71452
16.000000, 20.000000, 3.833383
16.000000, 20.500000, 3.955436
16.000000, 21.000000, 4.080693
16.000000, 21.500000, 4.209169
16.000000, 22.000000, 4.340879
16.000000, 22.500000, 4.475838
16.000000, 23.000000, 4.614062
16.000000, 23.500000, 4.755568
16.000000, 24.000000, 4.900373
16.000000, 24.500000, 5.048494
16.000000, 25.000000, 5.19995
16.000000, 25.500000, 5.354759
16.000000, 26.000000, 5.51294
16.000000, 26.500000, 5.674514
16.000000, 27.000000, 5.839499
16.000000, 27.500000, 6.007918
16.000000, 28.000000, 6.179791
16.000000, 28.500000, 6.355142
16.000000, 29.000000, 6.533992
16.000000, 29.500000, 6.716365
16.000000, 30.000000, 6.902286
16.000000, 30.500000, 7.091778
16.000000, 31.000000, 7.284869
16.000000, 31.500000, 7.481583
16.000000, 32.000000, 7.681949
16.000000, 32.500000, 7.885993
16.000000, 33.000000, 8.093745
16.000000, 33.500000, 8.305234
16.000000, 34.000000, 8.52049
16.000000, 34.500000, 8.739544
16.000000, 35.000000, 8.962429
16.000000, 35.500000, 9.189178
16.000000, 36.000000, 9.419824
16.000000, 36.500000, 9.654403
16.000000, 37.000000, 9.89295
16.000000, 37.500000, 10.135503
16.000000, 38.000000, 10.382099
16.000000, 38.500000, 10.632779
16.000000, 39.000000, 10.887582
16.000000, 39.500000, 11.14655
16.000000, 40.000000, 11.409727
16.000000, 40.500000, 11.677156
16.000000, 41.000000, 11.948883
16.000000, 41.500000, 12.224955
16.000000, 42.000000, 12.50542
16.000000, 42.500000, 12.79033
16.500000, -42.500000, 12.926619
16.500000, -42.000000, 12.640865
16.500000, -41.500000, 12.359568
16.500000, -41.000000, 12.082679
16.500000, -40.500000, 11.810149
16.500000, -40.000000, 11.54193
16.500000, -39.500000, 11.277977
16.500000, -39.000000, 11.018244
16.500000, -38.500000, 10.76269
16.500000, -38.000000, 10.51127
16.500000, -37.500000, 10.263946
16.500000, -37.000000, 10.020676
16.500000, -36.500000, 9.781424
16.500000, -36.000000, 9.54615
16.500000, -35.500000, 9.31482
16.500000, -35.000000, 9.087398
16.500000, -34.500000, 8.863849
16.500000, -34.000000, 8.644141
16.500000, -33.500000, 8.428241
16.500000, -33.000000, 8.216117
16.500000, -32.500000, 8.00774
16.500000, -32.000000, 7.803079
16.500000, -31.500000, 7.602106
16.500000, -31.000000, 7.404792
16.500000, -30.500000, 7.211111
16.500000, -30.000000, 7.021036
16.500000, -29.500000, 6.834541
16.500000, -29.000000, 6.651601
16.500000, -28.500000, 6.472192
16.500000, -28.000000, 6.29629
16.500000, -27.500000, 6.123873
16.500000, -27.000000, 5.954918
16.500000, -26.500000, 5.789403
16.500000, -26.000000, 5.627307
16.500000, -25.500000, 5.46861
16.500000, -25.000000, 5.313292
16.500000, -24.500000, 5.161333
16.500000, -24.000000, 5.012716
16.500000, -23.500000, 4.867421
16.500000, -23.000000, 4.725432
16.500000, -22.500000, 4.58673
16.500000, -22.000000, 4.4513
16.500000, -21.500000, 4.319124
16.500000, -21.000000, 4.190189
16.500000, -20.500000, 4.064477
16.500000, -20.000000, 3.941976
16.500000, -19.500000, 3.82267
16.500000, -19.000000, 3.706545
16.500000, -18.500000, 3.593589
16.500000, -18.000000, 3.483789
16.500000, -17.500000, 3.377132
16.500000, -17.000000, 3.273605
16.500000, -16.500000, 3.173198
16.500000, -16.000000, 3.075899
16.500000, -15.500000, 2.981697
16.500000, -15.000000, 2.890582
16.500000, -14.500000, 2.802544
16.500000, -14.000000, 2.717574
16.500000, -13.500000, 2.63566
16.500000, -13.000000, 2.556796
16.500000, -12.500000, 2.480972
16.500000, -12.000000, 2.408181
16.500000, -11.500000, 2.338413
16.500000, -11.000000, 2.271663
16.500000, -10.500000, 2.207922
16.500000, -10.000000, 2.147184
16.500000, -9.500000, 2.089442
16.500000, -9.000000, 2.034691
16.500000, -8.500000, 1.982924
16.500000, -8.000000, 1.934136
16.500000, -7.500000, 1.888322
16.500000, -7.000000, 1.845477
16.500000, -6.500000, 1.805597
16.500000, -6.000000, 1.768677
16.500000, -5.500000, 1.734714
16.500000, -5.000000, 1.703703
16.500000, -4.500000, 1.675643
16.500000, -4.000000, 1.650529
16.500000, -3.500000, 1.628359
16.500000, -3.000000, 1.609132
16.500000, -2.500000, 1.592844
16.500000, -2.000000, 1.579495
16.500000, -1.500000, 1.569082
16.500000, -1.000000, 1.561606
16.500000, -0.500000, 1.557064
16.500000, 0.000000, 1.555457
16.500000, 0.500000, 1.556784
16.500000, 1.000000, 1.561046
16.500000, 1.500000, 1.568243
16.500000, 2.000000, 1.578376
16.500000, 2.500000, 1.591445
16.500000, 3.000000, 1.607452
16.500000, 3.500000, 1.6264
16.500000, 4.000000, 1.648289
16.500000, 4.500000, 1.673122
16.500000, 5.000000, 1.700901
16.500000, 5.500000, 1.73163
16.500000, 6.000000, 1.765312
16.500000, 6.500000, 1.80195
16.500000, 7.000000, 1.841548
16.500000, 7.500000, 1.88411
16.500000, 8.000000, 1.929641
16.500000, 8.500000, 1.978145
16.500000, 9.000000, 2.029628
16.500000, 9.500000, 2.084094
16.500000, 10.000000, 2.14155
16.500000, 10.500000, 2.202003
16.500000, 11.000000, 2.265457
16.500000, 11.500000, 2.33192
16.500000, 12.000000, 2.4014
16.500000, 12.500000, 2.473903
16.500000, 13.000000, 2.549437
16.500000, 13.500000, 2.628011
16.500000, 14.000000, 2.709633
16.500000, 14.500000, 2.794312
16.500000, 15.000000, 2.882057
16.500000, 15.500000, 2.972879
16.500000, 16.000000, 3.066786
16.500000, 16.500000, 3.163789
16.500000, 17.000000, 3.263899
16.500000, 17.500000, 3.367128
16.500000, 18.000000, 3.473486
16.500000, 18.500000, 3.582987
16.500000, 19.000000, 3.695641
16.500000, 19.500000, 3.811463
16.500000, 20.000000, 3.930465
16.500000, 20.500000, 4.052661
16.500000, 21.000000, 4.178066
16.500000, 21.500000, 4.306694
16.500000, 22.000000, 4.438559
16.500000, 22.500000, 4.573679
16.500000, 23.000000, 4.712068
16.500000, 23.500000, 4.853743
16.500000, 24.000000, 4.998722
16.500000, 24.500000, 5.147022
16.500000, 25.000000, 5.298661
16.500000, 25.500000, 5.453658
16.500000, 26.000000, 5.612032
16.500000, 26.500000, 5.773803
16.500000, 27.000000, 5.938991
16.500000, 27.500000, 6.107618
16.500000, 28.000000, 6.279704
16.500000, 28.500000, 6.455273
16.500000, 29.000000, 6.634347
16.500000, 29.500000, 6.816949
16.500000, 30.000000, 7.003104
16.500000, 30.500000, 7.192837
16.500000, 31.000000, 7.386173
16.500000, 31.500000, 7.583139
16.500000, 32.000000, 7.783762
16.500000, 32.500000, 7.98807
16.500000, 33.000000, 8.196092
16.500000, 33.500000, 8.407857
16.500000, 34.000000, 8.623396
16.500000, 34.500000, 8.84274
16.500000, 35.000000, 9.065921
16.500000, 35.500000, 9.292973
16.500000, 36.000000, 9.523929
16.500000, 36.500000, 9.758824
16.500000, 37.000000, 9.997696
16.500000, 37.500000, 10.240581
16.500000, 38.000000, 10.487517
16.500000, 38.500000, 10.738545
16.500000, 39.000000, 10.993703
16.500000, 39.500000, 11.253036
16.500000, 40.000000, 11.516585
16.500000, 40.500000, 11.784395
16.500000, 41.000000, 12.056512
16.500000, 41.500000, 12.332983
16.500000, 42.000000, 12.613858
16.500000, 42.500000, 12.899185
17.000000, -42.500000, 13.039067
17.000000, -42.000000, 12.752879
17.000000, -41.500000, 12.471158
17.000000, -41.000000, 12.193854
17.000000, -40.500000, 11.920919
17.000000, -40.000000, 11.652305
17.000000, -39.500000, 11.387965
17.000000, -39.000000, 11.127855
17.000000, -38.500000, 10.871931
17.000000, -38.000000, 10.620151
17.000000, -37.500000, 10.372474
17.000000, -37.000000, 10.12886
17.000000, -36.500000, 9.88927
17.000000, -36.000000, 9.653668
17.000000, -35.500000, 9.422016
17.000000, -35.000000, 9.19428
17.000000, -34.500000, 8.970424
17.000000, -34.000000, 8.750415
17.000000, -33.500000, 8.534222
17.000000, -33.000000, 8.321812
17.000000, -32.500000, 8.113154
17.000000, -32.000000, 7.90822
17.000000, -31.500000, 7.706979
17.000000, -31.000000, 7.509405
17.000000, -30.500000, 7.315468
17.000000, -30.000000, 7.125144
17.000000, -29.500000, 6.938406
17.000000, -29.000000, 6.755228
17.000000, -28.500000, 6.575588
17.000000, -28.000000, 6.399459
17.000000, -27.500000, 6.226821
17.000000, -27.000000, 6.05765
17.000000, -26.500000, 5.891925
17.000000, -26.000000, 5.729624
17.000000, -25.500000, 5.570727
17.000000, -25.000000, 5.415214
17.000000, -24.500000, 5.263066
17.000000, -24.000000, 5.114263
17.000000, -23.500000, 4.968788
17.000000, -23.000000, 4.826622
17.000000, -22.500000, 4.68775
17.000000, -22.000000, 4.552153
17.000000, -21.500000, 4.419816
17.000000, -21.000000, 4.290723
17.000000, -20.500000, 4.164858
17.000000, -20.000000, 4.042208
17.000000, -19.500000, 3.922758
17.000000, -19.000000, 3.806493
17.000000, -18.500000, 3.693401
17.000000, -18.000000, 3.583469
17.000000, -17.500000, 3.476684
17.000000, -17.000000, 3.373034
17.000000, -16.500000, 3.272507
17.000000, -16.000000, 3.175093
17.000000, -15.500000, 3.080779
17.000000, -15.000000, 2.989557
17.000000, -14.500000, 2.901415
17.000000, -14.000000, 2.816344
17.000000, -13.500000, 2.734334
17.000000, -13.000000, 2.655378
17.000000, -12.500000, 2.579465
17.000000, -12.000000, 2.506588
17.000000, -11.500000, 2.436739
17.000000, -11.000000, 2.369911
17.000000, -10.500000, 2.306096
17.000000, -10.000000, 2.245287
17.000000, -9.500000, 2.187479
17.000000, -9.000000, 2.132664
17.000000, -8.500000, 2.080837
17.000000, -8.000000, 2.031993
17.000000, -7.500000, 1.986126
17.000000, -7.000000, 1.943232
17.000000, -6.500000, 1.903306
17.000000, -6.000000, 1.866343
17.000000, -5.500000, 1.832341
17.000000, -5.000000, 1.801295
17.000000, -4.500000, 1.773202
17.000000, -4.000000, 1.748059
17.000000, -3.500000, 1.725864
17.000000, -3.000000, 1.706615
17.000000, -2.500000, 1.690308
17.000000, -2.000000, 1.676944
17.000000, -1.500000, 1.666519
17.000000, -1.000000, 1.659034
17.000000, -0.500000, 1.654487
17.000000, 0.000000, 1.652878
17.000000, 0.500000, 1.654207
17.000000, 1.000000, 1.658474
17.000000, 1.500000, 1.665679
17.000000, 2.000000, 1.675823
17.000000, 2.500000, 1.688908
17.000000, 3.000000, 1.704933
17.000000, 3.500000, 1.723902
17.000000, 4.000000, 1.745816
17.000000, 4.500000, 1.770678
17.000000, 5.000000, 1.798489
17.000000, 5.500000, 1.829254
17.000000, 6.000000, 1.862974
17.000000, 6.500000, 1.899654
17.000000, 7.000000, 1.939298
17.000000, 7.500000, 1.981909
17.000000, 8.000000, 2.027492
17.000000, 8.500000, 2.076053
17.000000, 9.000000, 2.127595
17.000000, 9.500000, 2.182124
17.000000, 10.000000, 2.239647
17.000000, 10.500000, 2.30017
17.000000, 11.000000, 2.363698
17.000000, 11.500000, 2.430239
17.000000, 12.000000, 2.499799
17.000000, 12.500000, 2.572387
17.000000, 13.000000, 2.64801
17.000000, 13.500000, 2.726676
17.000000, 14.000000, 2.808394
17.000000, 14.500000, 2.893173
17.000000, 15.000000, 2.981022
17.000000, 15.500000, 3.07195
17.000000, 16.000000, 3.165968
17.000000, 16.500000, 3.263087
17.000000, 17.000000, 3.363316
17.000000, 17.500000, 3.466668
17.000000, 18.000000, 3.573154
17.000000, 18.500000, 3.682786
17.000000, 19.000000, 3.795576
17.000000, 19.500000, 3.911537
17.000000, 20.000000, 4.030683
17.000000, 20.500000, 4.153028
17.000000, 21.000000, 4.278585
17.000000, 21.500000, 4.40737
17.000000, 22.000000, 4.539397
17.000000, 22.500000, 4.674683
17.000000, 23.000000, 4.813242
17.000000, 23.500000, 4.955093
17.000000, 24.000000, 5.100252
17.000000, 24.500000, 5.248737
17.000000, 25.000000, 5.400565
17.000000, 25.500000, 5.555757
17.000000, 26.000000, 5.71433
17.000000, 26.500000, 5.876306
17.000000, 27.000000, 6.041704
17.000000, 27.500000, 6.210545
17.000000, 28.000000, 6.382852
17.000000, 28.500000, 6.558646
17.000000, 29.000000, 6.737951
17.000000, 29.500000, 6.920791
17.000000, 30.000000, 7.107188
17.000000, 30.500000, 7.29717
17.000000, 31.000000, 7.490761
17.000000, 31.500000, 7.687987
17.000000, 32.000000, 7.888877
17.000000, 32.500000, 8.093458
17.000000, 33.000000, 8.30176
17.000000, 33.500000, 8.513811
17.000000, 34.000000, 8.729642
17.000000, 34.500000, 8.949285
17.000000, 35.000000, 9.172773
17.000000, 35.500000, 9.400138
17.000000, 36.000000, 9.631415
17.000000, 36.500000, 9.86664
17.000000, 37.000000, 10.105847
17.000000, 37.500000, 10.349076
17.000000, 38.000000, 10.596364
17.000000, 38.500000, 10.847751
17.000000, 39.000000, 11.103278
17.000000, 39.500000, 11.362988
17.000000, 40.000000, 11.626922
17.000000, 40.500000, 11.895127
17.000000, 41.000000, 12.167648
17.000000, 41.500000, 12.444533
17.000000, 42.000000, 12.725831
17.000000, 42.500000, 13.011591
17.500000, -42.500000, 13.155084
17.500000, -42.000000, 12.868446
17.500000, -41.500000, 12.586286
17.500000, -41.000000, 12.308554
17.500000, -40.500000, 12.0352
17.500000, -40.000000, 11.766176
17.500000, -39.500000, 11.501436
17.500000, -39.000000, 11.240935
17.500000, -38.500000, 10.984629
17.500000, -38.000000, 10.732476
17.500000, -37.500000, 10.484434
17.500000, -37.000000, 10.240464
17.500000, -36.500000, 10.000526
17.500000, -36.000000, 9.764583
17.500000, -35.500000, 9.532599
17.500000, -35.000000, 9.304537
17.500000, -34.500000, 9.080363
17.500000, -34.000000, 8.860044
17.500000, -33.500000, 8.643547
17.500000, -33.000000, 8.430841
17.500000, -32.500000, 8.221894
17.500000, -32.000000, 8.016676
17.500000, -31.500000, 7.815159
17.500000, -31.000000, 7.617314
17.500000, -30.500000, 7.423114
17.500000, -30.000000, 7.232532
17.500000, -29.500000, 7.045542
17.500000, -29.000000, 6.862119
17.500000, -28.500000, 6.682239
17.500000, -28.000000, 6.505876
17.500000, -27.500000, 6.33301
17.500000, -27.000000, 6.163616
17.500000, -26.500000, 5.997673
17.500000, -26.000000, 5.83516
17.500000, -25.500000, 5.676056
17.500000, -25.000000, 5.520342
17.500000, -24.500000, 5.367997
17.500000, -24.000000, 5.219002
17.500000, -23.500000, 5.073341
17.500000, -23.000000, 4.930994
17.500000, -22.500000, 4.791944
17.500000, -22.000000, 4.656175
17.500000, -21.500000, 4.523671
17.500000, -21.000000, 4.394415
17.500000, -20.500000, 4.268392
17.500000, -20.000000, 4.145588
17.500000, -19.500000, 4.025989
17.500000, -19.000000, 3.909579
17.500000, -18.500000, 3.796347
17.500000, -18.000000, 3.686278
17.500000, -17.500000, 3.579361
17.500000, -17.000000, 3.475583
17.500000, -16.500000, 3.374933
17.500000, -16.000000, 3.277399
17.500000, -15.500000, 3.18297
17.500000, -15.000000, 3.091636
17.500000, -14.500000, 3.003387
17.500000, -14.000000, 2.918212
17.500000, -13.500000, 2.836103
17.500000, -13.000000, 2.757051
17.500000, -12.500000, 2.681046
17.500000, -12.000000, 2.608082
17.500000, -11.500000, 2.538149
17.500000, -11.000000, 2.47124
17.500000, -10.500000, 2.407348
17.500000, -10.000000, 2.346467
17.500000, -9.500000, 2.288589
17.500000, -9.000000, 2.233709
17.500000, -8.500000, 2.18182
17.500000, -8.000000, 2.132917
17.500000, -7.500000, 2.086996
17.500000, -7.000000, 2.04405
17.500000, -6.500000, 2.004077
17.500000, -6.000000, 1.96707
17.500000, -5.500000, 1.933027
17.500000, -5.000000, 1.901945
17.500000, -4.500000, 1.873818
17.500000, -4.000000, 1.848646
17.500000, -3.500000, 1.826425
17.500000, -3.000000, 1.807152
17.500000, -2.500000, 1.790827
17.500000, -2.000000, 1.777446
17.500000, -1.500000, 1.76701
17.500000, -1.000000, 1.759516
17.500000, -0.500000, 1.754963
17.500000, 0.000000, 1.753353
17.500000, 0.500000, 1.754683
17.500000, 1.000000, 1.758955
17.500000, 1.500000, 1.766168
17.500000, 2.000000, 1.776324
17.500000, 2.500000, 1.789424
17.500000, 3.000000, 1.805469
17.500000, 3.500000, 1.82446
17.500000, 4.000000, 1.8464
17.500000, 4.500000, 1.871291
17.500000, 5.000000, 1.899136
17.500000, 5.500000, 1.929937
17.500000, 6.000000, 1.963697
17.500000, 6.500000, 2.000421
17.500000, 7.000000, 2.040112
17.500000, 7.500000, 2.082774
17.500000, 8.000000, 2.128411
17.500000, 8.500000, 2.177029
17.500000, 9.000000, 2.228633
17.500000, 9.500000, 2.283228
17.500000, 10.000000, 2.34082
17.500000, 10.500000, 2.401415
17.500000, 11.000000, 2.465019
17.500000, 11.500000, 2.53164
17.500000, 12.000000, 2.601285
17.500000, 12.500000, 2.67396
17.500000, 13.000000, 2.749674
17.500000, 13.500000, 2.828436
17.500000, 14.000000, 2.910253
17.500000, 14.500000, 2.995135
17.500000, 15.000000, 3.083091
17.500000, 15.500000, 3.17413
17.500000, 16.000000, 3.268264
17.500000, 16.500000, 3.365501
17.500000, 17.000000, 3.465854
17.500000, 17.500000, 3.569333
17.500000, 18.000000, 3.675951
17.500000, 18.500000, 3.785718
17.500000, 19.000000, 3.898648
17.500000, 19.500000, 4.014754
17.500000, 20.000000, 4.134049
17.500000, 20.500000, 4.256547
17.500000, 21.000000, 4.382262
17.500000, 21.500000, 4.511209
17.500000, 22.000000, 4.643403
17.500000, 22.500000, 4.77886
17.500000, 23.000000, 4.917597
17.500000, 23.500000, 5.059628
17.500000, 24.000000, 5.204973
17.500000, 24.500000, 5.353649
17.500000, 25.000000, 5.505674
17.500000, 25.500000, 5.661066
17.500000, 26.000000, 5.819846
17.500000, 26.500000, 5.982033
17.500000, 27.000000, 6.147648
17.500000, 27.500000, 6.316712
17.500000, 28.000000, 6.489247
17.500000, 28.500000, 6.665275
17.500000, 29.000000, 6.844819
17.500000, 29.500000, 7.027903
17.500000, 30.000000, 7.214552
17.500000, 30.500000, 7.404791
17.500000, 31.000000, 7.598645
17.500000, 31.500000, 7.796141
17.500000, 32.000000, 7.997307
17.500000, 32.500000, 8.20217
17.500000, 33.000000, 8.41076
17.500000, 33.500000, 8.623107
17.500000, 34.000000, 8.839242
17.500000, 34.500000, 9.059195
17.500000, 35.000000, 9.283
17.500000, 35.500000, 9.510689
17.500000, 36.000000, 9.742298
17.500000, 36.500000, 9.977862
17.500000, 37.000000, 10.217418
17.500000, 37.500000, 10.461002
17.500000, 38.000000, 10.708654
17.500000, 38.500000, 10.960414
17.500000, 39.000000, 11.216322
17.500000, 39.500000, 11.476421
17.500000, 40.000000, 11.740755
17.500000, 40.500000, 12.009368
17.500000, 41.000000, 12.282308
17.500000, 41.500000, 12.55962
17.500000, 42.000000, 12.841356
17.500000, 42.500000, 13.127565
18.000000, -42.500000, 13.274686
18.000000, -42.000000, 12.987583
18.000000, -41.500000, 12.70497
18.000000, -41.000000, 12.426794
18.000000, -40.500000, 12.153007
18.000000, -40.000000, 11.88356
18.000000, -39.500000, 11.618406
