4.500000, -39.000000, 9.371815
4.500000, -38.500000, 9.122272
4.500000, -38.000000, 8.876729
4.500000, -37.500000, 8.635149
4.500000, -37.000000, 8.397494
4.500000, -36.500000, 8.16373
4.500000, -36.000000, 7.933822
4.500000, -35.500000, 7.707737
4.500000, -35.000000, 7.485441
4.500000, -34.500000, 7.266903
4.500000, -34.000000, 7.052093
4.500000, -33.500000, 6.84098
4.500000, -33.000000, 6.633535
4.500000, -32.500000, 6.42973
4.500000, -32.000000, 6.229538
4.500000, -31.500000, 6.032931
4.500000, -31.000000, 5.839884
4.500000, -30.500000, 5.650371
4.500000, -30.000000, 5.464368
4.500000, -29.500000, 5.281851
4.500000, -29.000000, 5.102796
4.500000, -28.500000, 4.927182
4.500000, -28.000000, 4.754985
4.500000, -27.500000, 4.586185
4.500000, -27.000000, 4.420761
4.500000, -26.500000, 4.258693
4.500000, -26.000000, 4.099962
4.500000, -25.500000, 3.944547
4.500000, -25.000000, 3.792432
4.500000, -24.500000, 3.643597
4.500000, -24.000000, 3.498026
4.500000, -23.500000, 3.355701
4.500000, -23.000000, 3.216606
4.500000, -22.500000, 3.080726
4.500000, -22.000000, 2.948045
4.500000, -21.500000, 2.818548
4.500000, -21.000000, 2.69222
4.500000, -20.500000, 2.569047
4.500000, -20.000000, 2.449016
4.500000, -19.500000, 2.332114
4.500000, -19.000000, 2.218328
4.500000, -18.500000, 2.107646
4.500000, -18.000000, 2.000055
4.500000, -17.500000, 1.895544
4.500000, -17.000000, 1.794102
4.500000, -16.500000, 1.695718
4.500000, -16.000000, 1.600382
4.500000, -15.500000, 1.508083
4.500000, -15.000000, 1.418812
4.500000, -14.500000, 1.33256
4.500000, -14.000000, 1.249317
4.500000, -13.500000, 1.169075
4.500000, -13.000000, 1.091825
4.500000, -12.500000, 1.017559
4.500000, -12.000000, 0.946269
4.500000, -11.500000, 0.877948
4.500000, -11.000000, 0.812589
4.500000, -10.500000, 0.750183
4.500000, -10.000000, 0.690725
4.500000, -9.500000, 0.634209
4.500000, -9.000000, 0.580627
4.500000, -8.500000, 0.529973
4.500000, -8.000000, 0.482243
4.500000, -7.500000, 0.437431
4.500000, -7.000000, 0.39553
4.500000, -6.500000, 0.356537
4.500000, -6.000000, 0.320447
4.500000, -5.500000, 0.287254
4.500000, -5.000000, 0.256956
4.500000, -4.500000, 0.229547
4.500000, -4.000000, 0.205025
4.500000, -3.500000, 0.183387
4.500000, -3.000000, 0.164628
4.500000, -2.500000, 0.148747
4.500000, -2.000000, 0.135741
4.500000, -1.500000, 0.125609
4.500000, -1.000000, 0.118348
4.500000, -0.500000, 0.113958
4.500000, 0.000000, 0.112439
4.500000, 0.500000, 0.113788
4.500000, 1.000000, 0.118008
4.500000, 1.500000, 0.125097
4.500000, 2.000000, 0.135057
4.500000, 2.500000, 0.14789
4.500000, 3.000000, 0.163596
4.500000, 3.500000, 0.182178
4.500000, 4.000000, 0.203638
4.500000, 4.500000, 0.227979
4.500000, 5.000000, 0.255204
4.500000, 5.500000, 0.285317
4.500000, 6.000000, 0.318321
4.500000, 6.500000, 0.35422
4.500000, 7.000000, 0.393019
4.500000, 7.500000, 0.434723
4.500000, 8.000000, 0.479336
4.500000, 8.500000, 0.526864
4.500000, 9.000000, 0.577313
4.500000, 9.500000, 0.630688
4.500000, 10.000000, 0.686996
4.500000, 10.500000, 0.746242
4.500000, 11.000000, 0.808434
4.500000, 11.500000, 0.873578
4.500000, 12.000000, 0.941682
4.500000, 12.500000, 1.012752
4.500000, 13.000000, 1.086798
4.500000, 13.500000, 1.163826
4.500000, 14.000000, 1.243845
4.500000, 14.500000, 1.326863
4.500000, 15.000000, 1.41289
4.500000, 15.500000, 1.501935
4.500000, 16.000000, 1.594006
4.500000, 16.500000, 1.689114
4.500000, 17.000000, 1.787269
4.500000, 17.500000, 1.888482
4.500000, 18.000000, 1.992763
4.500000, 18.500000, 2.100124
4.500000, 19.000000, 2.210575
4.500000, 19.500000, 2.32413
4.500000, 20.000000, 2.4408
4.500000, 20.500000, 2.560598
4.500000, 21.000000, 2.683538
4.500000, 21.500000, 2.809632
4.500000, 22.000000, 2.938896
4.500000, 22.500000, 3.071343
4.500000, 23.000000, 3.206988
4.500000, 23.500000, 3.345847
4.500000, 24.000000, 3.487935
4.500000, 24.500000, 3.63327
4.500000, 25.000000, 3.781867
4.500000, 25.500000, 3.933744
4.500000, 26.000000, 4.08892
4.500000, 26.500000, 4.247412
4.500000, 27.000000, 4.409239
4.500000, 27.500000, 4.574421
4.500000, 28.000000, 4.742978
4.500000, 28.500000, 4.914931
4.500000, 29.000000, 5.0903
4.500000, 29.500000, 5.269109
4.500000, 30.000000, 5.451378
4.500000, 30.500000, 5.637133
4.500000, 31.000000, 5.826395
4.500000, 31.500000, 6.019191
4.500000, 32.000000, 6.215545
4.500000, 32.500000, 6.415483
4.500000, 33.000000, 6.619031
4.500000, 33.500000, 6.826218
4.500000, 34.000000, 7.037071
4.500000, 34.500000, 7.25162
4.500000, 35.000000, 7.469894
4.500000, 35.500000, 7.691924
4.500000, 36.000000, 7.917742
4.500000, 36.500000, 8.147381
4.500000, 37.000000, 8.380873
4.500000, 37.500000, 8.618253
4.500000, 38.000000, 8.859556
4.500000, 38.500000, 9.10482
4.500000, 39.000000, 9.354081
4.500000, 39.500000, 9.607379
4.500000, 40.000000, 9.864752
4.500000, 40.500000, 10.126243
4.500000, 41.000000, 10.391892
4.500000, 41.500000, 10.661744
4.500000, 42.000000, 10.935844
4.500000, 42.500000, 11.214237
5.000000, -42.500000, 11.265366
5.000000, -42.000000, 10.986568
5.000000, -41.500000, 10.712068
5.000000, -41.000000, 10.441822
5.000000, -40.500000, 10.175784
5.000000, -40.000000, 9.913911
5.000000, -39.500000, 9.65616
5.000000, -39.000000, 9.402489
5.000000, -38.500000, 9.15286
5.000000, -38.000000, 8.907234
5.000000, -37.500000, 8.665572
5.000000, -37.000000, 8.427838
5.000000, -36.500000, 8.193997
5.000000, -36.000000, 7.964013
5.000000, -35.500000, 7.737855
5.000000, -35.000000, 7.515487
5.000000, -34.500000, 7.29688
5.000000, -34.000000, 7.082002
5.000000, -33.500000, 6.870823
5.000000, -33.000000, 6.663314
5.000000, -32.500000, 6.459447
5.000000, -32.000000, 6.259193
5.000000, -31.500000, 6.062527
5.000000, -31.000000, 5.869422
5.000000, -30.500000, 5.679853
5.000000, -30.000000, 5.493795
5.000000, -29.500000, 5.311224
5.000000, -29.000000, 5.132117
5.000000, -28.500000, 4.956451
5.000000, -28.000000, 4.784205
5.000000, -27.500000, 4.615356
5.000000, -27.000000, 4.449884
5.000000, -26.500000, 4.287769
5.000000, -26.000000, 4.128991
5.000000, -25.500000, 3.973531
5.000000, -25.000000, 3.821371
5.000000, -24.500000, 3.672492
5.000000, -24.000000, 3.526877
5.000000, -23.500000, 3.38451
5.000000, -23.000000, 3.245373
5.000000, -22.500000, 3.10945
5.000000, -22.000000, 2.976727
5.000000, -21.500000, 2.847188
5.000000, -21.000000, 2.720818
5.000000, -20.500000, 2.597603
5.000000, -20.000000, 2.477531
5.000000, -19.500000, 2.360586
5.000000, -19.000000, 2.246757
5.000000, -18.500000, 2.136032
5.000000, -18.000000, 2.028397
5.000000, -17.500000, 1.923842
5.000000, -17.000000, 1.822355
5.000000, -16.500000, 1.723926
5.000000, -16.000000, 1.628543
5.000000, -15.500000, 1.536197
5.000000, -15.000000, 1.446878
5.000000, -14.500000, 1.360577
5.000000, -14.000000, 1.277284
5.000000, -13.500000, 1.19699
5.000000, -13.000000, 1.119688
5.000000, -12.500000, 1.045369
5.000000, -12.000000, 0.974025
5.000000, -11.500000, 0.905649
5.000000, -11.000000, 0.840234
5.000000, -10.500000, 0.777772
5.000000, -10.000000, 0.718258
5.000000, -9.500000, 0.661684
5.000000, -9.000000, 0.608045
5.000000, -8.500000, 0.557334
5.000000, -8.000000, 0.509547
5.000000, -7.500000, 0.464678
5.000000, -7.000000, 0.422723
5.000000, -6.500000, 0.383675
5.000000, -6.000000, 0.347533
5.000000, -5.500000, 0.31429
5.000000, -5.000000, 0.283943
5.000000, -4.500000, 0.256489
5.000000, -4.000000, 0.231924
5.000000, -3.500000, 0.210246
5.000000, -3.000000, 0.191451
5.000000, -2.500000, 0.175538
5.000000, -2.000000, 0.162505
5.000000, -1.500000, 0.152349
5.000000, -1.000000, 0.145071
5.000000, -0.500000, 0.140667
5.000000, 0.000000, 0.139139
5.000000, 0.500000, 0.140485
5.000000, 1.000000, 0.144706
5.000000, 1.500000, 0.151802
5.000000, 2.000000, 0.161774
5.000000, 2.500000, 0.174624
5.000000, 3.000000, 0.190351
5.000000, 3.500000, 0.208959
5.000000, 4.000000, 0.23045
5.000000, 4.500000, 0.254825
5.000000, 5.000000, 0.282088
5.000000, 5.500000, 0.312243
5.000000, 6.000000, 0.345291
5.000000, 6.500000, 0.381238
5.000000, 7.000000, 0.420088
5.000000, 7.500000, 0.461843
5.000000, 8.000000, 0.506511
5.000000, 8.500000, 0.554095
5.000000, 9.000000, 0.6046
5.000000, 9.500000, 0.658033
5.000000, 10.000000, 0.714398
5.000000, 10.500000, 0.773703
5.000000, 11.000000, 0.835954
5.000000, 11.500000, 0.901157
5.000000, 12.000000, 0.969319
5.000000, 12.500000, 1.040447
5.000000, 13.000000, 1.11455
5.000000, 13.500000, 1.191635
5.000000, 14.000000, 1.27171
5.000000, 14.500000, 1.354784
5.000000, 15.000000, 1.440865
5.000000, 15.500000, 1.529963
5.000000, 16.000000, 1.622087
5.000000, 16.500000, 1.717248
5.000000, 17.000000, 1.815454
5.000000, 17.500000, 1.916717
5.000000, 18.000000, 2.021048
5.000000, 18.500000, 2.128457
5.000000, 19.000000, 2.238958
5.000000, 19.500000, 2.35256
5.000000, 20.000000, 2.469278
5.000000, 20.500000, 2.589123
5.000000, 21.000000, 2.712109
5.000000, 21.500000, 2.83825
5.000000, 22.000000, 2.96756
5.000000, 22.500000, 3.100053
5.000000, 23.000000, 3.235744
5.000000, 23.500000, 3.37465
5.000000, 24.000000, 3.516785
5.000000, 24.500000, 3.662166
5.000000, 25.000000, 3.810811
5.000000, 25.500000, 3.962736
5.000000, 26.000000, 4.11796
5.000000, 26.500000, 4.2765
5.000000, 27.000000, 4.438377
5.000000, 27.500000, 4.60361
5.000000, 28.000000, 4.772218
5.000000, 28.500000, 4.944223
5.000000, 29.000000, 5.119646
5.000000, 29.500000, 5.298508
5.000000, 30.000000, 5.480833
5.000000, 30.500000, 5.666644
5.000000, 31.000000, 5.855965
5.000000, 31.500000, 6.04882
5.000000, 32.000000, 6.245234
5.000000, 32.500000, 6.445234
5.000000, 33.000000, 6.648846
5.000000, 33.500000, 6.856097
5.000000, 34.000000, 7.067017
5.000000, 34.500000, 7.281634
5.000000, 35.000000, 7.499979
5.000000, 35.500000, 7.722081
5.000000, 36.000000, 7.947972
5.000000, 36.500000, 8.177686
5.000000, 37.000000, 8.411256
5.000000, 37.500000, 8.648715
5.000000, 38.000000, 8.890101
5.000000, 38.500000, 9.135448
5.000000, 39.000000, 9.384796
5.000000, 39.500000, 9.638182
5.000000, 40.000000, 9.895646
5.000000, 40.500000, 10.157229
5.000000, 41.000000, 10.422974
5.000000, 41.500000, 10.692924
5.000000, 42.000000, 10.967124
5.000000, 42.500000, 11.24562
5.500000, -42.500000, 11.29976
5.500000, -42.000000, 11.020843
5.500000, -41.500000, 10.746228
5.500000, -41.000000, 10.475868
5.500000, -40.500000, 10.20972
5.500000, -40.000000, 9.947739
5.500000, -39.500000, 9.689883
5.500000, -39.000000, 9.43611
5.500000, -38.500000, 9.186381
5.500000, -38.000000, 8.940657
5.500000, -37.500000, 8.6989
5.500000, -37.000000, 8.461074
5.500000, -36.500000, 8.227142
5.500000, -36.000000, 7.997071
5.500000, -35.500000, 7.770826
5.500000, -35.000000, 7.548375
5.500000, -34.500000, 7.329685
5.500000, -34.000000, 7.114727
5.500000, -33.500000, 6.903471
5.500000, -33.000000, 6.695886
5.500000, -32.500000, 6.491944
5.500000, -32.000000, 6.291618
5.500000, -31.500000, 6.094882
5.500000, -31.000000, 5.901708
5.500000, -30.500000, 5.712071
5.500000, -30.000000, 5.525948
5.500000, -29.500000, 5.343313
5.500000, -29.000000, 5.164143
5.500000, -28.500000, 4.988416
5.500000, -28.000000, 4.81611
5.500000, -27.500000, 4.647203
5.500000, -27.000000, 4.481674
5.500000, -26.500000, 4.319503
5.500000, -26.000000, 4.160671
5.500000, -25.500000, 4.005158
5.500000, -25.000000, 3.852945
5.500000, -24.500000, 3.704015
5.500000, -24.000000, 3.55835
5.500000, -23.500000, 3.415932
5.500000, -23.000000, 3.276747
5.500000, -22.500000, 3.140776
5.500000, -22.000000, 3.008006
5.500000, -21.500000, 2.87842
5.500000, -21.000000, 2.752004
5.500000, -20.500000, 2.628744
5.500000, -20.000000, 2.508626
5.500000, -19.500000, 2.391637
5.500000, -19.000000, 2.277764
5.500000, -18.500000, 2.166994
5.500000, -18.000000, 2.059316
5.500000, -17.500000, 1.954717
5.500000, -17.000000, 1.853186
5.500000, -16.500000, 1.754713
5.500000, -16.000000, 1.659286
5.500000, -15.500000, 1.566896
5.500000, -15.000000, 1.477533
5.500000, -14.500000, 1.391187
5.500000, -14.000000, 1.30785
5.500000, -13.500000, 1.227512
5.500000, -13.000000, 1.150165
5.500000, -12.500000, 1.075801
5.500000, -12.000000, 1.004412
5.500000, -11.500000, 0.935991
5.500000, -11.000000, 0.87053
5.500000, -10.500000, 0.808023
5.500000, -10.000000, 0.748463
5.500000, -9.500000, 0.691844
5.500000, -9.000000, 0.63816
5.500000, -8.500000, 0.587406
5.500000, -8.000000, 0.539575
5.500000, -7.500000, 0.494664
5.500000, -7.000000, 0.452667
5.500000, -6.500000, 0.413579
5.500000, -6.000000, 0.377397
5.500000, -5.500000, 0.344116
5.500000, -5.000000, 0.313734
5.500000, -4.500000, 0.286246
5.500000, -4.000000, 0.26165
5.500000, -3.500000, 0.239943
5.500000, -3.000000, 0.221123
5.500000, -2.500000, 0.205187
5.500000, -2.000000, 0.192134
5.500000, -1.500000, 0.181961
5.500000, -1.000000, 0.174669
5.500000, -0.500000, 0.170256
5.500000, 0.000000, 0.168722
5.500000, 0.500000, 0.170066
5.500000, 1.000000, 0.174288
5.500000, 1.500000, 0.181389
5.500000, 2.000000, 0.19137
5.500000, 2.500000, 0.204231
5.500000, 3.000000, 0.219974
5.500000, 3.500000, 0.238602
5.500000, 4.000000, 0.260114
5.500000, 4.500000, 0.284515
5.500000, 5.000000, 0.311807
5.500000, 5.500000, 0.341992
5.500000, 6.000000, 0.375074
5.500000, 6.500000, 0.411057
5.500000, 7.000000, 0.449944
5.500000, 7.500000, 0.49174
5.500000, 8.000000, 0.536448
5.500000, 8.500000, 0.584075
5.500000, 9.000000, 0.634624
5.500000, 9.500000, 0.688102
5.500000, 10.000000, 0.744514
5.500000, 10.500000, 0.803865
5.500000, 11.000000, 0.866163
5.500000, 11.500000, 0.931413
5.500000, 12.000000, 0.999623
5.500000, 12.500000, 1.070799
5.500000, 13.000000, 1.14495
5.500000, 13.500000, 1.222083
5.500000, 14.000000, 1.302207
5.500000, 14.500000, 1.385329
5.500000, 15.000000, 1.471458
5.500000, 15.500000, 1.560604
5.500000, 16.000000, 1.652776
5.500000, 16.500000, 1.747984
5.500000, 17.000000, 1.846239
5.500000, 17.500000, 1.94755
5.500000, 18.000000, 2.051928
5.500000, 18.500000, 2.159386
5.500000, 19.000000, 2.269933
5.500000, 19.500000, 2.383584
5.500000, 20.000000, 2.50035
5.500000, 20.500000, 2.620244
5.500000, 21.000000, 2.743279
5.500000, 21.500000, 2.869469
5.500000, 22.000000, 2.998828
5.500000, 22.500000, 3.131371
5.500000, 23.000000, 3.267114
5.500000, 23.500000, 3.40607
5.500000, 24.000000, 3.548257
5.500000, 24.500000, 3.693691
5.500000, 25.000000, 3.84239
5.500000, 25.500000, 3.994369
5.500000, 26.000000, 4.149648
5.500000, 26.500000, 4.308245
5.500000, 27.000000, 4.470179
5.500000, 27.500000, 4.63547
5.500000, 28.000000, 4.804138
5.500000, 28.500000, 4.976204
5.500000, 29.000000, 5.151689
5.500000, 29.500000, 5.330615
5.500000, 30.000000, 5.513006
5.500000, 30.500000, 5.698883
5.500000, 31.000000, 5.888271
5.500000, 31.500000, 6.081196
5.500000, 32.000000, 6.277681
5.500000, 32.500000, 6.477754
5.500000, 33.000000, 6.681441
5.500000, 33.500000, 6.888769
5.500000, 34.000000, 7.099767
5.500000, 34.500000, 7.314464
5.500000, 35.000000, 7.532891
5.500000, 35.500000, 7.755077
5.500000, 36.000000, 7.981055
5.500000, 36.500000, 8.210857
5.500000, 37.000000, 8.444517
5.500000, 37.500000, 8.682069
5.500000, 38.000000, 8.92355
5.500000, 38.500000, 9.168995
5.500000, 39.000000, 9.418442
5.500000, 39.500000, 9.67193
5.500000, 40.000000, 9.929499
5.500000, 40.500000, 10.19119
5.500000, 41.000000, 10.457045
5.500000, 41.500000, 10.727108
5.500000, 42.000000, 11.001423
5.500000, 42.500000, 11.280038
6.000000, -42.500000, 11.337284
6.000000, -42.000000, 11.058233
6.000000, -41.500000, 10.783488
6.000000, -41.000000, 10.513001
6.000000, -40.500000, 10.246729
6.000000, -40.000000, 9.984627
6.000000, -39.500000, 9.726652
6.000000, -39.000000, 9.472764
6.000000, -38.500000, 9.222922
6.000000, -38.000000, 8.977087
6.000000, -37.500000, 8.735223
6.000000, -37.000000, 8.497291
6.000000, -36.500000, 8.263257
6.000000, -36.000000, 8.033085
6.000000, -35.500000, 7.806742
6.000000, -35.000000, 7.584195
6.000000, -34.500000, 7.365413
6.000000, -34.000000, 7.150364
6.000000, -33.500000, 6.939018
6.000000, -33.000000, 6.731346
6.000000, -32.500000, 6.52732
6.000000, -32.000000, 6.326911
6.000000, -31.500000, 6.130093
6.000000, -31.000000, 5.936841
6.000000, -30.500000, 5.747127
6.000000, -30.000000, 5.560928
6.000000, -29.500000, 5.378219
6.000000, -29.000000, 5.198978
6.000000, -28.500000, 5.023181
6.000000, -28.000000, 4.850806
6.000000, -27.500000, 4.681832
6.000000, -27.000000, 4.516238
6.000000, -26.500000, 4.354003
6.000000, -26.000000, 4.195109
6.000000, -25.500000, 4.039534
6.000000, -25.000000, 3.887262
6.000000, -24.500000, 3.738274
6.000000, -24.000000, 3.592552
6.000000, -23.500000, 3.450079
6.000000, -23.000000, 3.310838
6.000000, -22.500000, 3.174814
6.000000, -22.000000, 3.041991
6.000000, -21.500000, 2.912354
6.000000, -21.000000, 2.785888
6.000000, -20.500000, 2.662579
6.000000, -20.000000, 2.542412
6.000000, -19.500000, 2.425375
6.000000, -19.000000, 2.311455
6.000000, -18.500000, 2.200639
6.000000, -18.000000, 2.092915
6.000000, -17.500000, 1.988271
6.000000, -17.000000, 1.886697
6.000000, -16.500000, 1.78818
6.000000, -16.000000, 1.69271
6.000000, -15.500000, 1.600278
6.000000, -15.000000, 1.510873
6.000000, -14.500000, 1.424485
6.000000, -14.000000, 1.341107
6.000000, -13.500000, 1.260728
6.000000, -13.000000, 1.183341
6.000000, -12.500000, 1.108937
6.000000, -12.000000, 1.037509
6.000000, -11.500000, 0.969049
6.000000, -11.000000, 0.903549
6.000000, -10.500000, 0.841005
6.000000, -10.000000, 0.781408
6.000000, -9.500000, 0.724752
6.000000, -9.000000, 0.671032
6.000000, -8.500000, 0.620243
6.000000, -8.000000, 0.572378
6.000000, -7.500000, 0.527433
6.000000, -7.000000, 0.485404
6.000000, -6.500000, 0.446285
6.000000, -6.000000, 0.410074
6.000000, -5.500000, 0.376765
6.000000, -5.000000, 0.346356
6.000000, -4.500000, 0.318843
6.000000, -4.000000, 0.294225
6.000000, -3.500000, 0.272497
6.000000, -3.000000, 0.253657
6.000000, -2.500000, 0.237705
6.000000, -2.000000, 0.224637
6.000000, -1.500000, 0.214453
6.000000, -1.000000, 0.207151
6.000000, -0.500000, 0.202732
6.000000, 0.000000, 0.201193
6.000000, 0.500000, 0.202535
6.000000, 1.000000, 0.206759
6.000000, 1.500000, 0.213864
6.000000, 2.000000, 0.223851
6.000000, 2.500000, 0.236722
6.000000, 3.000000, 0.252477
6.000000, 3.500000, 0.271119
6.000000, 4.000000, 0.292648
6.000000, 4.500000, 0.317068
6.000000, 5.000000, 0.344381
6.000000, 5.500000, 0.37459
6.000000, 6.000000, 0.407698
6.000000, 6.500000, 0.443708
6.000000, 7.000000, 0.482624
6.000000, 7.500000, 0.524451
6.000000, 8.000000, 0.569192
6.000000, 8.500000, 0.616852
6.000000, 9.000000, 0.667437
6.000000, 9.500000, 0.720951
6.000000, 10.000000, 0.777399
6.000000, 10.500000, 0.836789
6.000000, 11.000000, 0.899126
6.000000, 11.500000, 0.964416
6.000000, 12.000000, 1.032666
6.000000, 12.500000, 1.103884
6.000000, 13.000000, 1.178077
6.000000, 13.500000, 1.255253
6.000000, 14.000000, 1.335419
6.000000, 14.500000, 1.418584
6.000000, 15.000000, 1.504758
6.000000, 15.500000, 1.593949
6.000000, 16.000000, 1.686166
6.000000, 16.500000, 1.78142
6.000000, 17.000000, 1.87972
6.000000, 17.500000, 1.981078
6.000000, 18.000000, 2.085504
6.000000, 18.500000, 2.193009
6.000000, 19.000000, 2.303605
6.000000, 19.500000, 2.417305
6.000000, 20.000000, 2.534121
6.000000, 20.500000, 2.654065
6.000000, 21.000000, 2.777152
6.000000, 21.500000, 2.903394
6.000000, 22.000000, 3.032807
6.000000, 22.500000, 3.165404
6.000000, 23.000000, 3.301202
6.000000, 23.500000, 3.440215
6.000000, 24.000000, 3.582459
6.000000, 24.500000, 3.727952
6.000000, 25.000000, 3.876709
6.000000, 25.500000, 4.02875
6.000000, 26.000000, 4.184091
6.000000, 26.500000, 4.342751
6.000000, 27.000000, 4.50475
6.000000, 27.500000, 4.670107
6.000000, 28.000000, 4.838843
6.000000, 28.500000, 5.010978
6.000000, 29.000000, 5.186534
6.000000, 29.500000, 5.365533
6.000000, 30.000000, 5.547997
6.000000, 30.500000, 5.73395
6.000000, 31.000000, 5.923416
6.000000, 31.500000, 6.11642
6.000000, 32.000000, 6.312986
6.000000, 32.500000, 6.513142
6.000000, 33.000000, 6.716914
6.000000, 33.500000, 6.924329
6.000000, 34.000000, 7.135417
6.000000, 34.500000, 7.350205
6.000000, 35.000000, 7.568725
6.000000, 35.500000, 7.791007
6.000000, 36.000000, 8.017083
6.000000, 36.500000, 8.246985
6.000000, 37.000000, 8.480748
6.000000, 37.500000, 8.718405
6.000000, 38.000000, 8.959993
6.000000, 38.500000, 9.205548
6.000000, 39.000000, 9.455108
6.000000, 39.500000, 9.708712
6.000000, 40.000000, 9.966399
6.000000, 40.500000, 10.228211
6.000000, 41.000000, 10.49419
6.000000, 41.500000, 10.764379
6.000000, 42.000000, 11.038825
6.000000, 42.500000, 11.317573
6.500000, -42.500000, 11.378006
6.500000, -42.000000, 11.098808
6.500000, -41.500000, 10.823918
6.500000, -41.000000, 10.553291
6.500000, -40.500000, 10.286881
6.500000, -40.000000, 10.024645
6.500000, -39.500000, 9.766539
6.500000, -39.000000, 9.512522
6.500000, -38.500000, 9.262555
6.500000, -38.000000, 9.016598
6.500000, -37.500000, 8.774614
6.500000, -37.000000, 8.536566
6.500000, -36.500000, 8.302417
6.500000, -36.000000, 8.072134
6.500000, -35.500000, 7.845682
6.500000, -35.000000, 7.623029
6.500000, -34.500000, 7.404142
6.500000, -34.000000, 7.188991
6.500000, -33.500000, 6.977546
6.500000, -33.000000, 6.769777
6.500000, -32.500000, 6.565656
6.500000, -32.000000, 6.365155
6.500000, -31.500000, 6.168247
6.500000, -31.000000, 5.974906
6.500000, -30.500000, 5.785106
6.500000, -30.000000, 5.598822
6.500000, -29.500000, 5.416032
6.500000, -29.000000, 5.23671
6.500000, -28.500000, 5.060834
6.500000, -28.000000, 4.888383
6.500000, -27.500000, 4.719334
6.500000, -27.000000, 4.553667
6.500000, -26.500000, 4.391361
6.500000, -26.000000, 4.232396
6.500000, -25.500000, 4.076754
6.500000, -25.000000, 3.924415
6.500000, -24.500000, 3.775362
6.500000, -24.000000, 3.629577
6.500000, -23.500000, 3.487042
6.500000, -23.000000, 3.347741
6.500000, -22.500000, 3.211658
6.500000, -22.000000, 3.078778
6.500000, -21.500000, 2.949084
6.500000, -21.000000, 2.822563
6.500000, -20.500000, 2.6992
6.500000, -20.000000, 2.578982
6.500000, -19.500000, 2.461894
6.500000, -19.000000, 2.347924
6.500000, -18.500000, 2.237059
6.500000, -18.000000, 2.129287
6.500000, -17.500000, 2.024597
6.500000, -17.000000, 1.922976
6.500000, -16.500000, 1.824415
6.500000, -16.000000, 1.728902
6.500000, -15.500000, 1.636427
6.500000, -15.000000, 1.54698
6.500000, -14.500000, 1.460552
6.500000, -14.000000, 1.377133
6.500000, -13.500000, 1.296716
6.500000, -13.000000, 1.219291
6.500000, -12.500000, 1.14485
6.500000, -12.000000, 1.073385
6.500000, -11.500000, 1.00489
6.500000, -11.000000, 0.939356
6.500000, -10.500000, 0.876778
6.500000, -10.000000, 0.817148
6.500000, -9.500000, 0.760461
6.500000, -9.000000, 0.706711
6.500000, -8.500000, 0.655892
6.500000, -8.000000, 0.607999
6.500000, -7.500000, 0.563027
6.500000, -7.000000, 0.520971
6.500000, -6.500000, 0.481828
6.500000, -6.000000, 0.445593
6.500000, -5.500000, 0.412262
6.500000, -5.000000, 0.381833
6.500000, -4.500000, 0.354301
6.500000, -4.000000, 0.329665
6.500000, -3.500000, 0.307921
6.500000, -3.000000, 0.289067
6.500000, -2.500000, 0.273102
6.500000, -2.000000, 0.260024
6.500000, -1.500000, 0.249832
6.500000, -1.000000, 0.242523
6.500000, -0.500000, 0.238099
6.500000, 0.000000, 0.236558
6.500000, 0.500000, 0.237899
6.500000, 1.000000, 0.242124
6.500000, 1.500000, 0.249233
6.500000, 2.000000, 0.259226
6.500000, 2.500000, 0.272104
6.500000, 3.000000, 0.287868
6.500000, 3.500000, 0.306521
6.500000, 4.000000, 0.328064
6.500000, 4.500000, 0.3525
6.500000, 5.000000, 0.37983
6.500000, 5.500000, 0.410058
6.500000, 6.000000, 0.443186
6.500000, 6.500000, 0.479218
6.500000, 7.000000, 0.518159
6.500000, 7.500000, 0.56001
6.500000, 8.000000, 0.604778
6.500000, 8.500000, 0.652467
6.500000, 9.000000, 0.703081
6.500000, 9.500000, 0.756625
6.500000, 10.000000, 0.813106
6.500000, 10.500000, 0.872529
6.500000, 11.000000, 0.934899
6.500000, 11.500000, 1.000225
6.500000, 12.000000, 1.068512
6.500000, 12.500000, 1.139767
6.500000, 13.000000, 1.213998
6.500000, 13.500000, 1.291213
6.500000, 14.000000, 1.371419
6.500000, 14.500000, 1.454626
6.500000, 15.000000, 1.540842
6.500000, 15.500000, 1.630076
6.500000, 16.000000, 1.722337
6.500000, 16.500000, 1.817636
6.500000, 17.000000, 1.915982
6.500000, 17.500000, 2.017387
6.500000, 18.000000, 2.121861
6.500000, 18.500000, 2.229415
6.500000, 19.000000, 2.340062
6.500000, 19.500000, 2.453813
6.500000, 20.000000, 2.570681
6.500000, 20.500000, 2.690679
6.500000, 21.000000, 2.81382
6.500000, 21.500000, 2.940119
6.500000, 22.000000, 3.069589
6.500000, 22.500000, 3.202244
6.500000, 23.000000, 3.338102
6.500000, 23.500000, 3.477176
6.500000, 24.000000, 3.619483
6.500000, 24.500000, 3.765039
6.500000, 25.000000, 3.913862
6.500000, 25.500000, 4.06597
6.500000, 26.000000, 4.22138
6.500000, 26.500000, 4.38011
6.500000, 27.000000, 4.542181
6.500000, 27.500000, 4.707612
6.500000, 28.000000, 4.876423
6.500000, 28.500000, 5.048635
6.500000, 29.000000, 5.224269
6.500000, 29.500000, 5.403349
6.500000, 30.000000, 5.585895
6.500000, 30.500000, 5.771933
6.500000, 31.000000, 5.961485
6.500000, 31.500000, 6.154578
6.500000, 32.000000, 6.351235
6.500000, 32.500000, 6.551483
6.500000, 33.000000, 6.75535
6.500000, 33.500000, 6.962862
6.500000, 34.000000, 7.174049
6.500000, 34.500000, 7.388939
6.500000, 35.000000, 7.607563
6.500000, 35.500000, 7.829951
6.500000, 36.000000, 8.056136
6.500000, 36.500000, 8.286149
6.500000, 37.000000, 8.520026
6.500000, 37.500000, 8.7578
6.500000, 38.000000, 8.999508
6.500000, 38.500000, 9.245185
6.500000, 39.000000, 9.49487
6.500000, 39.500000, 9.748601
6.500000, 40.000000, 10.006419
6.500000, 40.500000, 10.268365
6.500000, 41.000000, 10.534482
6.500000, 41.500000, 10.804812
6.500000, 42.000000, 11.079401
6.500000, 42.500000, 11.358296
7.000000, -42.500000, 11.421981
7.000000, -42.000000, 11.142622
7.000000, -41.500000, 10.867575
7.000000, -41.000000, 10.596795
7.000000, -40.500000, 10.330234
7.000000, -40.000000, 10.067851
7.000000, -39.500000, 9.809602
7.000000, -39.000000, 9.555445
7.000000, -38.500000, 9.305341
7.000000, -38.000000, 9.059251
7.000000, -37.500000, 8.817135
7.000000, -37.000000, 8.578959
7.000000, -36.500000, 8.344685
7.000000, -36.000000, 8.11428
7.000000, -35.500000, 7.887708
7.000000, -35.000000, 7.664939
7.000000, -34.500000, 7.445938
7.000000, -34.000000, 7.230676
7.000000, -33.500000, 7.019121
7.000000, -33.000000, 6.811246
7.000000, -32.500000, 6.607021
7.000000, -32.000000, 6.406418
7.000000, -31.500000, 6.209411
7.000000, -31.000000, 6.015972
7.000000, -30.500000, 5.826078
7.000000, -30.000000, 5.639702
7.000000, -29.500000, 5.45682
7.000000, -29.000000, 5.27741
7.000000, -28.500000, 5.101448
7.000000, -28.000000, 4.928913
7.000000, -27.500000, 4.759782
7.000000, -27.000000, 4.594034
7.000000, -26.500000, 4.43165
7.000000, -26.000000, 4.272609
7.000000, -25.500000, 4.116892
7.000000, -25.000000, 3.96448
7.000000, -24.500000, 3.815356
7.000000, -24.000000, 3.669501
7.000000, -23.500000, 3.526899
7.000000, -23.000000, 3.387532
7.000000, -22.500000, 3.251386
7.000000, -22.000000, 3.118442
7.000000, -21.500000, 2.988688
7.000000, -21.000000, 2.862108
7.000000, -20.500000, 2.738687
7.000000, -20.000000, 2.618412
7.000000, -19.500000, 2.501269
7.000000, -19.000000, 2.387245
7.000000, -18.500000, 2.276328
7.000000, -18.000000, 2.168506
7.000000, -17.500000, 2.063766
7.000000, -17.000000, 1.962098
7.000000, -16.500000, 1.86349
7.000000, -16.000000, 1.767932
7.000000, -15.500000, 1.675413
7.000000, -15.000000, 1.585923
7.000000, -14.500000, 1.499454
7.000000, -14.000000, 1.415996
7.000000, -13.500000, 1.335539
7.000000, -13.000000, 1.258076
7.000000, -12.500000, 1.183599
7.000000, -12.000000, 1.112099
7.000000, -11.500000, 1.04357
7.000000, -11.000000, 0.978004
7.000000, -10.500000, 0.915394
7.000000, -10.000000, 0.855734
7.000000, -9.500000, 0.799018
7.000000, -9.000000, 0.745239
7.000000, -8.500000, 0.694394
7.000000, -8.000000, 0.646475
7.000000, -7.500000, 0.601479
7.000000, -7.000000, 0.559401
7.000000, -6.500000, 0.520236
7.000000, -6.000000, 0.483981
7.000000, -5.500000, 0.450631
7.000000, -5.000000, 0.420184
7.000000, -4.500000, 0.392637
7.000000, -4.000000, 0.367986
7.000000, -3.500000, 0.346229
7.000000, -3.000000, 0.327364
7.000000, -2.500000, 0.31139
7.000000, -2.000000, 0.298303
7.000000, -1.500000, 0.288104
7.000000, -1.000000, 0.280791
7.000000, -0.500000, 0.276363
7.000000, 0.000000, 0.27482
7.000000, 0.500000, 0.276162
7.000000, 1.000000, 0.280388
7.000000, 1.500000, 0.2875
7.000000, 2.000000, 0.297498
7.000000, 2.500000, 0.310383
7.000000, 3.000000, 0.326156
7.000000, 3.500000, 0.344819
7.000000, 4.000000, 0.366374
7.000000, 4.500000, 0.390822
7.000000, 5.000000, 0.418167
7.000000, 5.500000, 0.448411
7.000000, 6.000000, 0.481558
7.000000, 6.500000, 0.517609
7.000000, 7.000000, 0.556571
7.000000, 7.500000, 0.598445
7.000000, 8.000000, 0.643236
7.000000, 8.500000, 0.69095
7.000000, 9.000000, 0.741591
7.000000, 9.500000, 0.795163
7.000000, 10.000000, 0.851673
7.000000, 10.500000, 0.911126
7.000000, 11.000000, 0.973529
7.000000, 11.500000, 1.038888
7.000000, 12.000000, 1.107209
7.000000, 12.500000, 1.1785
7.000000, 13.000000, 1.252768
7.000000, 13.500000, 1.330021
7.000000, 14.000000, 1.410267
7.000000, 14.500000, 1.493515
7.000000, 15.000000, 1.579773
7.000000, 15.500000, 1.66905
7.000000, 16.000000, 1.761356
7.000000, 16.500000, 1.8567
7.000000, 17.000000, 1.955094
7.000000, 17.500000, 2.056547
7.000000, 18.000000, 2.161071
7.000000, 18.500000, 2.268676
7.000000, 19.000000, 2.379376
7.000000, 19.500000, 2.493181
7.000000, 20.000000, 2.610104
7.000000, 20.500000, 2.730159
7.000000, 21.000000, 2.853359
7.000000, 21.500000, 2.979717
7.000000, 22.000000, 3.109249
7.000000, 22.500000, 3.241968
7.000000, 23.000000, 3.377889
7.000000, 23.500000, 3.51703
7.000000, 24.000000, 3.659404
7.000000, 24.500000, 3.80503
7.000000, 25.000000, 3.953925
7.000000, 25.500000, 4.106105
7.000000, 26.000000, 4.26159
7.000000, 26.500000, 4.420397
7.000000, 27.000000, 4.582547
7.000000, 27.500000, 4.748058
7.000000, 28.000000, 4.916951
7.000000, 28.500000, 5.089247
7.000000, 29.000000, 5.264968
7.000000, 29.500000, 5.444136
7.000000, 30.000000, 5.626773
7.000000, 30.500000, 5.812904
7.000000, 31.000000, 6.002551
7.000000, 31.500000, 6.19574
7.000000, 32.000000, 6.392497
7.000000, 32.500000, 6.592847
7.000000, 33.000000, 6.796817
7.000000, 33.500000, 7.004436
7.000000, 34.000000, 7.215731
7.000000, 34.500000, 7.430733
7.000000, 35.000000, 7.64947
7.000000, 35.500000, 7.871975
7.000000, 36.000000, 8.098279
7.000000, 36.500000, 8.328415
7.000000, 37.000000, 8.562417
7.000000, 37.500000, 8.800319
7.000000, 38.000000, 9.042157
7.000000, 38.500000, 9.287968
7.000000, 39.000000, 9.537789
7.000000, 39.500000, 9.791661
7.000000, 40.000000, 10.049622
7.000000, 40.500000, 10.311714
7.000000, 41.000000, 10.57798
7.000000, 41.500000, 10.848464
7.000000, 42.000000, 11.12321
7.000000, 42.500000, 11.402265
7.500000, -42.500000, 11.469251
7.500000, -42.000000, 11.189718
7.500000, -41.500000, 10.914502
7.500000, -41.000000, 10.643555
7.500000, -40.500000, 10.376833
7.500000, -40.000000, 10.114291
7.500000, -39.500000, 9.855886
7.500000, -39.000000, 9.601578
7.500000, -38.500000, 9.351326
7.500000, -38.000000, 9.10509
7.500000, -37.500000, 8.862833
7.500000, -37.000000, 8.624518
7.500000, -36.500000, 8.390109
7.500000, -36.000000, 8.159571
7.500000, -35.500000, 7.932871
7.500000, -35.000000, 7.709974
7.500000, -34.500000, 7.49085
7.500000, -34.000000, 7.275467
7.500000, -33.500000, 7.063794
7.500000, -33.000000, 6.855803
7.500000, -32.500000, 6.651465
7.500000, -32.000000, 6.450752
7.500000, -31.500000, 6.253637
7.500000, -31.000000, 6.060093
7.500000, -30.500000, 5.870096
7.500000, -30.000000, 5.683619
7.500000, -29.500000, 5.50064
7.500000, -29.000000, 5.321134
7.500000, -28.500000, 5.145079
7.500000, -28.000000, 4.972452
7.500000, -27.500000, 4.803231
7.500000, -27.000000, 4.637397
7.500000, -26.500000, 4.474927
7.500000, -26.000000, 4.315803
7.500000, -25.500000, 4.160006
7.500000, -25.000000, 4.007515
7.500000, -24.500000, 3.858314
7.500000, -24.000000, 3.712384
7.500000, -23.500000, 3.569709
7.500000, -23.000000, 3.430271
7.500000, -22.500000, 3.294055
7.500000, -22.000000, 3.161044
7.500000, -21.500000, 3.031224
7.500000, -21.000000, 2.904579
7.500000, -20.500000, 2.781096
7.500000, -20.000000, 2.660761
7.500000, -19.500000, 2.543559
7.500000, -19.000000, 2.429478
7.500000, -18.500000, 2.318506
7.500000, -18.000000, 2.21063
7.500000, -17.500000, 2.105838
7.500000, -17.000000, 2.004119
7.500000, -16.500000, 1.905461
7.500000, -16.000000, 1.809855
7.500000, -15.500000, 1.71729
7.500000, -15.000000, 1.627756
7.500000, -14.500000, 1.541244
7.500000, -14.000000, 1.457744
7.500000, -13.500000, 1.377247
7.500000, -13.000000, 1.299746
7.500000, -12.500000, 1.225231
7.500000, -12.000000, 1.153696
7.500000, -11.500000, 1.085132
7.500000, -11.000000, 1.019533
7.500000, -10.500000, 0.956891
7.500000, -10.000000, 0.897201
7.500000, -9.500000, 0.840456
7.500000, -9.000000, 0.786651
7.500000, -8.500000, 0.735779
7.500000, -8.000000, 0.687836
7.500000, -7.500000, 0.642817
7.500000, -7.000000, 0.600717
7.500000, -6.500000, 0.561532
7.500000, -6.000000, 0.525258
7.500000, -5.500000, 0.491891
7.500000, -5.000000, 0.461428
7.500000, -4.500000, 0.433866
7.500000, -4.000000, 0.409202
7.500000, -3.500000, 0.387434
7.500000, -3.000000, 0.368559
7.500000, -2.500000, 0.352575
7.500000, -2.000000, 0.339482
7.500000, -1.500000, 0.329277
7.500000, -1.000000, 0.321959
7.500000, -0.500000, 0.317529
7.500000, 0.000000, 0.315985
7.500000, 0.500000, 0.317327
7.500000, 1.000000, 0.321555
7.500000, 1.500000, 0.328671
7.500000, 2.000000, 0.338674
7.500000, 2.500000, 0.351565
7.500000, 3.000000, 0.367346
7.500000, 3.500000, 0.386018
7.500000, 4.000000, 0.407584
7.500000, 4.500000, 0.432045
7.500000, 5.000000, 0.459404
7.500000, 5.500000, 0.489664
7.500000, 6.000000, 0.522827
7.500000, 6.500000, 0.558898
7.500000, 7.000000, 0.597879
7.500000, 7.500000, 0.639774
7.500000, 8.000000, 0.684589
7.500000, 8.500000, 0.732327
7.500000, 9.000000, 0.782993
7.500000, 9.500000, 0.836593
7.500000, 10.000000, 0.893132
7.500000, 10.500000, 0.952615
7.500000, 11.000000, 1.01505
7.500000, 11.500000, 1.080442
7.500000, 12.000000, 1.148797
7.500000, 12.500000, 1.220124
7.500000, 13.000000, 1.29443
7.500000, 13.500000, 1.371722
7.500000, 14.000000, 1.452008
7.500000, 14.500000, 1.535298
7.500000, 15.000000, 1.621599
7.500000, 15.500000, 1.71092
7.500000, 16.000000, 1.803273
7.500000, 16.500000, 1.898665
7.500000, 17.000000, 1.997108
7.500000, 17.500000, 2.098612
7.500000, 18.000000, 2.203189
7.500000, 18.500000, 2.310848
7.500000, 19.000000, 2.421603
7.500000, 19.500000, 2.535466
7.500000, 20.000000, 2.652448
7.500000, 20.500000, 2.772564
7.500000, 21.000000, 2.895826
7.500000, 21.500000, 3.022248
7.500000, 22.000000, 3.151846
7.500000, 22.500000, 3.284632
7.500000, 23.000000, 3.420623
7.500000, 23.500000, 3.559835
7.500000, 24.000000, 3.702283
7.500000, 24.500000, 3.847984
7.500000, 25.000000, 3.996955
7.500000, 25.500000, 4.149215
7.500000, 26.000000, 4.30478
7.500000, 26.500000, 4.46367
7.500000, 27.000000, 4.625905
7.500000, 27.500000, 4.791503
7.500000, 28.000000, 4.960485
7.500000, 28.500000, 5.132873
7.500000, 29.000000, 5.308688
7.500000, 29.500000, 5.487951
7.500000, 30.000000, 5.670686
7.500000, 30.500000, 5.856917
7.500000, 31.000000, 6.046667
7.500000, 31.500000, 6.239961
7.500000, 32.000000, 6.436825
7.500000, 32.500000, 6.637286
7.500000, 33.000000, 6.841369
7.500000, 33.500000, 7.049103
7.500000, 34.000000, 7.260516
7.500000, 34.500000, 7.475639
7.500000, 35.000000, 7.6945
7.500000, 35.500000, 7.917131
7.500000, 36.000000, 8.143564
7.500000, 36.500000, 8.373832
7.500000, 37.000000, 8.607969
7.500000, 37.500000, 8.846009
7.500000, 38.000000, 9.087988
7.500000, 38.500000, 9.333944
7.500000, 39.000000, 9.583914
7.500000, 39.500000, 9.837937
7.500000, 40.000000, 10.096053
7.500000, 40.500000, 10.358303
7.500000, 41.000000, 10.624732
7.500000, 41.500000, 10.895381
7.500000, 42.000000, 11.170297
7.500000, 42.500000, 11.449526
8.000000, -42.500000, 11.519847
8.000000, -42.000000, 11.240128
8.000000, -41.500000, 10.964729
8.000000, -41.000000, 10.693603
8.000000, -40.500000, 10.426707
8.000000, -40.000000, 10.163994
8.000000, -39.500000, 9.905423
8.000000, -39.000000, 9.650952
8.000000, -38.500000, 9.40054
8.000000, -38.000000, 9.154149
8.000000, -37.500000, 8.91174
8.000000, -37.000000, 8.673276
8.000000, -36.500000, 8.438722
8.000000, -36.000000, 8.208042
8.000000, -35.500000, 7.981202
8.000000, -35.000000, 7.75817
8.000000, -34.500000, 7.538912
8.000000, -34.000000, 7.323399
8.000000, -33.500000, 7.1116
8.000000, -33.000000, 6.903485
8.000000, -32.500000, 6.699026
8.000000, -32.000000, 6.498194
8.000000, -31.500000, 6.300963
8.000000, -31.000000, 6.107306
8.000000, -30.500000, 5.917198
8.000000, -30.000000, 5.730614
8.000000, -29.500000, 5.547529
8.000000, -29.000000, 5.36792
8.000000, -28.500000, 5.191764
8.000000, -28.000000, 5.019038
8.000000, -27.500000, 4.849722
8.000000, -27.000000, 4.683794
8.000000, -26.500000, 4.521233
8.000000, -26.000000, 4.36202
8.000000, -25.500000, 4.206135
8.000000, -25.000000, 4.05356
8.000000, -24.500000, 3.904276
8.000000, -24.000000, 3.758266
8.000000, -23.500000, 3.615512
8.000000, -23.000000, 3.475998
8.000000, -22.500000, 3.339707
8.000000, -22.000000, 3.206624
8.000000, -21.500000, 3.076733
8.000000, -21.000000, 2.95002
8.000000, -20.500000, 2.82647
8.000000, -20.000000, 2.70607
8.000000, -19.500000, 2.588805
8.000000, -19.000000, 2.474663
8.000000, -18.500000, 2.363631
8.000000, -18.000000, 2.255698
8.000000, -17.500000, 2.15085
8.000000, -17.000000, 2.049077
8.000000, -16.500000, 1.950367
8.000000, -16.000000, 1.854711
8.000000, -15.500000, 1.762097
8.000000, -15.000000, 1.672516
8.000000, -14.500000, 1.585958
8.000000, -14.000000, 1.502414
8.000000, -13.500000, 1.421875
8.000000, -13.000000, 1.344332
8.000000, -12.500000, 1.269779
8.000000, -12.000000, 1.198206
8.000000, -11.500000, 1.129606
8.000000, -11.000000, 1.063973
8.000000, -10.500000, 1.001299
8.000000, -10.000000, 0.941577
8.000000, -9.500000, 0.884803
8.000000, -9.000000, 0.830969
8.000000, -8.500000, 0.780071
8.000000, -8.000000, 0.732103
8.000000, -7.500000, 0.68706
8.000000, -7.000000, 0.644938
8.000000, -6.500000, 0.605733
8.000000, -6.000000, 0.56944
8.000000, -5.500000, 0.536055
8.000000, -5.000000, 0.505577
8.000000, -4.500000, 0.478
8.000000, -4.000000, 0.453323
8.000000, -3.500000, 0.431543
8.000000, -3.000000, 0.412658
8.000000, -2.500000, 0.396667
8.000000, -2.000000, 0.383566
8.000000, -1.500000, 0.373356
8.000000, -1.000000, 0.366035
8.000000, -0.500000, 0.361602
8.000000, 0.000000, 0.360057
8.000000, 0.500000, 0.361399
8.000000, 1.000000, 0.36563
8.000000, 1.500000, 0.372749
8.000000, 2.000000, 0.382757
8.000000, 2.500000, 0.395655
8.000000, 3.000000, 0.411444
8.000000, 3.500000, 0.430126
8.000000, 4.000000, 0.451703
8.000000, 4.500000, 0.476177
8.000000, 5.000000, 0.50355
8.000000, 5.500000, 0.533826
8.000000, 6.000000, 0.567006
8.000000, 6.500000, 0.603096
8.000000, 7.000000, 0.642097
8.000000, 7.500000, 0.684014
8.000000, 8.000000, 0.728852
8.000000, 8.500000, 0.776615
8.000000, 9.000000, 0.827308
8.000000, 9.500000, 0.880936
8.000000, 10.000000, 0.937504
8.000000, 10.500000, 0.997019
8.000000, 11.000000, 1.059486
8.000000, 11.500000, 1.124912
8.000000, 12.000000, 1.193303
8.000000, 12.500000, 1.264668
8.000000, 13.000000, 1.339012
8.000000, 13.500000, 1.416345
8.000000, 14.000000, 1.496674
8.000000, 14.500000, 1.580007
8.000000, 15.000000, 1.666353
8.000000, 15.500000, 1.755723
8.000000, 16.000000, 1.848124
8.000000, 16.500000, 1.943567
8.000000, 17.000000, 2.042062
8.000000, 17.500000, 2.14362
8.000000, 18.000000, 2.248252
8.000000, 18.500000, 2.355969
8.000000, 19.000000, 2.466784
8.000000, 19.500000, 2.580707
8.000000, 20.000000, 2.697753
8.000000, 20.500000, 2.817933
8.000000, 21.000000, 2.941262
8.000000, 21.500000, 3.067753
8.000000, 22.000000, 3.19742
8.000000, 22.500000, 3.330279
8.000000, 23.000000, 3.466345
8.000000, 23.500000, 3.605633
8.000000, 24.000000, 3.748159
8.000000, 24.500000, 3.893941
8.000000, 25.000000, 4.042995
8.000000, 25.500000, 4.195339
8.000000, 26.000000, 4.350991
8.000000, 26.500000, 4.50997
8.000000, 27.000000, 4.672296
8.000000, 27.500000, 4.837988
8.000000, 28.000000, 5.007066
8.000000, 28.500000, 5.179552
8.000000, 29.000000, 5.355467
8.000000, 29.500000, 5.534833
8.000000, 30.000000, 5.717674
8.000000, 30.500000, 5.904012
8.000000, 31.000000, 6.093873
8.000000, 31.500000, 6.28728
8.000000, 32.000000, 6.48426
8.000000, 32.500000, 6.684838
8.000000, 33.000000, 6.889043
8.000000, 33.500000, 7.096901
8.000000, 34.000000, 7.308441
8.000000, 34.500000, 7.523693
8.000000, 35.000000, 7.742687
8.000000, 35.500000, 7.965453
8.000000, 36.000000, 8.192025
8.000000, 36.500000, 8.422435
8.000000, 37.000000, 8.656717
8.000000, 37.500000, 8.894906
8.000000, 38.000000, 9.137038
8.000000, 38.500000, 9.383149
8.000000, 39.000000, 9.633277
8.000000, 39.500000, 9.887463
8.000000, 40.000000, 10.145745
8.000000, 40.500000, 10.408166
8.000000, 41.000000, 10.674768
8.000000, 41.500000, 10.945596
8.000000, 42.000000, 11.220694
8.000000, 42.500000, 11.500109
8.500000, -42.500000, 11.573789
8.500000, -42.000000, 11.29387
8.500000, -41.500000, 11.018276
8.500000, -41.000000, 10.74696
8.500000, -40.500000, 10.479877
8.500000, -40.000000, 10.216982
8.500000, -39.500000, 9.958233
8.500000, -39.000000, 9.703588
8.500000, -38.500000, 9.453007
8.500000, -38.000000, 9.206449
8.500000, -37.500000, 8.963878
8.500000, -37.000000, 8.725255
8.500000, -36.500000, 8.490545
8.500000, -36.000000, 8.259713
8.500000, -35.500000, 8.032725
8.500000, -35.000000, 7.809547
8.500000, -34.500000, 7.590148
8.500000, -34.000000, 7.374496
8.500000, -33.500000, 7.162561
8.500000, -33.000000, 6.954313
8.500000, -32.500000, 6.749724
8.500000, -32.000000, 6.548766
8.500000, -31.500000, 6.351411
8.500000, -31.000000, 6.157634
8.500000, -30.500000, 5.967407
8.500000, -30.000000, 5.780707
8.500000, -29.500000, 5.59751
8.500000, -29.000000, 5.417791
8.500000, -28.500000, 5.241527
8.500000, -28.000000, 5.068697
8.500000, -27.500000, 4.899278
8.500000, -27.000000, 4.73325
8.500000, -26.500000, 4.570591
8.500000, -26.000000, 4.411283
8.500000, -25.500000, 4.255306
8.500000, -25.000000, 4.10264
8.500000, -24.500000, 3.953268
8.500000, -24.000000, 3.807171
8.500000, -23.500000, 3.664334
8.500000, -23.000000, 3.524738
8.500000, -22.500000, 3.388367
8.500000, -22.000000, 3.255207
8.500000, -21.500000, 3.125241
8.500000, -21.000000, 2.998455
8.500000, -20.500000, 2.874834
8.500000, -20.000000, 2.754364
8.500000, -19.500000, 2.637032
8.500000, -19.000000, 2.522825
8.500000, -18.500000, 2.41173
8.500000, -18.000000, 2.303735
8.500000, -17.500000, 2.198828
8.500000, -17.000000, 2.096997
8.500000, -16.500000, 1.998232
8.500000, -16.000000, 1.902521
8.500000, -15.500000, 1.809855
8.500000, -15.000000, 1.720224
8.500000, -14.500000, 1.633617
8.500000, -14.000000, 1.550027
8.500000, -13.500000, 1.469443
8.500000, -13.000000, 1.391858
8.500000, -12.500000, 1.317262
8.500000, -12.000000, 1.24565
8.500000, -11.500000, 1.177012
8.500000, -11.000000, 1.111342
8.500000, -10.500000, 1.048634
8.500000, -10.000000, 0.988879
8.500000, -9.500000, 0.932074
8.500000, -9.000000, 0.87821
8.500000, -8.500000, 0.827284
8.500000, -8.000000, 0.77929
8.500000, -7.500000, 0.734222
8.500000, -7.000000, 0.692077
8.500000, -6.500000, 0.65285
8.500000, -6.000000, 0.616537
8.500000, -5.500000, 0.583135
8.500000, -5.000000, 0.552639
8.500000, -4.500000, 0.525048
8.500000, -4.000000, 0.500358
8.500000, -3.500000, 0.478566
8.500000, -3.000000, 0.459671
8.500000, -2.500000, 0.44367
8.500000, -2.000000, 0.430562
8.500000, -1.500000, 0.420347
8.500000, -1.000000, 0.413021
8.500000, -0.500000, 0.408586
8.500000, 0.000000, 0.40704
8.500000, 0.500000, 0.408384
8.500000, 1.000000, 0.412616
8.500000, 1.500000, 0.419739
8.500000, 2.000000, 0.429753
8.500000, 2.500000, 0.442658
8.500000, 3.000000, 0.458455
8.500000, 3.500000, 0.477148
8.500000, 4.000000, 0.498736
8.500000, 4.500000, 0.523224
8.500000, 5.000000, 0.550612
8.500000, 5.500000, 0.580904
8.500000, 6.000000, 0.614103
8.500000, 6.500000, 0.650212
8.500000, 7.000000, 0.689234
8.500000, 7.500000, 0.731175
8.500000, 8.000000, 0.776037
8.500000, 8.500000, 0.823826
8.500000, 9.000000, 0.874547
8.500000, 9.500000, 0.928204
8.500000, 10.000000, 0.984804
8.500000, 10.500000, 1.044351
8.500000, 11.000000, 1.106853
8.500000, 11.500000, 1.172315
8.500000, 12.000000, 1.240745
8.500000, 12.500000, 1.312149
8.500000, 13.000000, 1.386534
8.500000, 13.500000, 1.46391
8.500000, 14.000000, 1.544283
8.500000, 14.500000, 1.627663
8.500000, 15.000000, 1.714058
8.500000, 15.500000, 1.803477
8.500000, 16.000000, 1.89593
8.500000, 16.500000, 1.991427
8.500000, 17.000000, 2.089978
8.500000, 17.500000, 2.191594
8.500000, 18.000000, 2.296285
8.500000, 18.500000, 2.404063
8.500000, 19.000000, 2.514941
8.500000, 19.500000, 2.628929
8.500000, 20.000000, 2.746042
8.500000, 20.500000, 2.866291
8.500000, 21.000000, 2.989691
8.500000, 21.500000, 3.116255
8.500000, 22.000000, 3.245998
8.500000, 22.500000, 3.378934
8.500000, 23.000000, 3.515079
8.500000, 23.500000, 3.654449
8.500000, 24.000000, 3.797059
8.500000, 24.500000, 3.942926
8.500000, 25.000000, 4.092068
8.500000, 25.500000, 4.244503
8.500000, 26.000000, 4.400248
8.500000, 26.500000, 4.559322
8.500000, 27.000000, 4.721745
8.500000, 27.500000, 4.887536
8.500000, 28.000000, 5.056717
8.500000, 28.500000, 5.229308
8.500000, 29.000000, 5.40533
8.500000, 29.500000, 5.584806
8.500000, 30.000000, 5.76776
8.500000, 30.500000, 5.954213
8.500000, 31.000000, 6.144192
8.500000, 31.500000, 6.33772
8.500000, 32.000000, 6.534823
8.500000, 32.500000, 6.735528
8.500000, 33.000000, 6.939862
8.500000, 33.500000, 7.147852
8.500000, 34.000000, 7.359528
8.500000, 34.500000, 7.574918
8.500000, 35.000000, 7.794054
8.500000, 35.500000, 8.016966
8.500000, 36.000000, 8.243686
8.500000, 36.500000, 8.474248
8.500000, 37.000000, 8.708685
8.500000, 37.500000, 8.947032
8.500000, 38.000000, 9.189326
8.500000, 38.500000, 9.435603
8.500000, 39.000000, 9.685902
8.500000, 39.500000, 9.940261
8.500000, 40.000000, 10.198721
8.500000, 40.500000, 10.461324
8.500000, 41.000000, 10.728112
8.500000, 41.500000, 10.99913
8.500000, 42.000000, 11.274422
8.500000, 42.500000, 11.554037
9.000000, -42.500000, 11.631088
9.000000, -42.000000, 11.350957
9.000000, -41.500000, 11.075155
9.000000, -41.000000, 10.803637
9.000000, -40.500000, 10.536356
9.000000, -40.000000, 10.273268
9.000000, -39.500000, 10.014329
9.000000, -39.000000, 9.759499
9.000000, -38.500000, 9.508736
9.000000, -38.000000, 9.262002
9.000000, -37.500000, 9.019257
9.000000, -37.000000, 8.780466
9.000000, -36.500000, 8.54559
9.000000, -36.000000, 8.314597
9.000000, -35.500000, 8.08745
9.000000, -35.000000, 7.864118
9.000000, -34.500000, 7.644568
9.000000, -34.000000, 7.428769
9.000000, -33.500000, 7.21669
9.000000, -33.000000, 7.008301
9.000000, -32.500000, 6.803574
9.000000, -32.000000, 6.602481
9.000000, -31.500000, 6.404995
9.000000, -31.000000, 6.211088
9.000000, -30.500000, 6.020736
9.000000, -30.000000, 5.833914
9.000000, -29.500000, 5.650596
9.000000, -29.000000, 5.47076
9.000000, -28.500000, 5.294382
9.000000, -28.000000, 5.12144
9.000000, -27.500000, 4.951912
9.000000, -27.000000, 4.785777
9.000000, -26.500000, 4.623015
9.000000, -26.000000, 4.463606
9.000000, -25.500000, 4.307529
9.000000, -25.000000, 4.154767
9.000000, -24.500000, 4.005301
9.000000, -24.000000, 3.859113
9.000000, -23.500000, 3.716187
9.000000, -23.000000, 3.576504
9.000000, -22.500000, 3.440049
9.000000, -22.000000, 3.306806
9.000000, -21.500000, 3.17676
9.000000, -21.000000, 3.049896
9.000000, -20.500000, 2.926199
9.000000, -20.000000, 2.805656
9.000000, -19.500000, 2.688253
9.000000, -19.000000, 2.573976
9.000000, -18.500000, 2.462814
9.000000, -18.000000, 2.354754
9.000000, -17.500000, 2.249783
9.000000, -17.000000, 2.147891
9.000000, -16.500000, 2.049067
9.000000, -16.000000, 1.953299
9.000000, -15.500000, 1.860578
