-38.000000, 6.000000, 8.09975
-38.000000, 6.500000, 8.136812
-38.000000, 7.000000, 8.176887
-38.000000, 7.500000, 8.219983
-38.000000, 8.000000, 8.266111
-38.000000, 8.500000, 8.315284
-38.000000, 9.000000, 8.367513
-38.000000, 9.500000, 8.422809
-38.000000, 10.000000, 8.481187
-38.000000, 10.500000, 8.54266
-38.000000, 11.000000, 8.607241
-38.000000, 11.500000, 8.674944
-38.000000, 12.000000, 8.745786
-38.000000, 12.500000, 8.81978
-38.000000, 13.000000, 8.896943
-38.000000, 13.500000, 8.97729
-38.000000, 14.000000, 9.060839
-38.000000, 14.500000, 9.147606
-38.000000, 15.000000, 9.237608
-38.000000, 15.500000, 9.330864
-38.000000, 16.000000, 9.427391
-38.000000, 16.500000, 9.527209
-38.000000, 17.000000, 9.630334
-38.000000, 17.500000, 9.736788
-38.000000, 18.000000, 9.84659
-38.000000, 18.500000, 9.959759
-38.000000, 19.000000, 10.076317
-38.000000, 19.500000, 10.196283
-38.000000, 20.000000, 10.31968
-38.000000, 20.500000, 10.446528
-38.000000, 21.000000, 10.57685
-38.000000, 21.500000, 10.710669
-38.000000, 22.000000, 10.848006
-38.000000, 22.500000, 10.988887
-38.000000, 23.000000, 11.133333
-38.000000, 23.500000, 11.28137
-38.000000, 24.000000, 11.433023
-38.000000, 24.500000, 11.588316
-38.000000, 25.000000, 11.747276
-38.000000, 25.500000, 11.909929
-38.000000, 26.000000, 12.076302
-38.000000, 26.500000, 12.246421
-38.000000, 27.000000, 12.420317
-38.000000, 27.500000, 12.598016
-38.000000, 28.000000, 12.779549
-38.000000, 28.500000, 12.964946
-38.000000, 29.000000, 13.154238
-38.000000, 29.500000, 13.347455
-38.000000, 30.000000, 13.544632
-38.000000, 30.500000, 13.7458
-38.000000, 31.000000, 13.950993
-38.000000, 31.500000, 14.160247
-38.000000, 32.000000, 14.373598
-38.000000, 32.500000, 14.591082
-38.000000, 33.000000, 14.812737
-38.000000, 33.500000, 15.038601
-38.000000, 34.000000, 15.268715
-38.000000, 34.500000, 15.503119
-38.000000, 35.000000, 15.741856
-38.000000, 35.500000, 15.984969
-38.000000, 36.000000, 16.232503
-38.000000, 36.500000, 16.484503
-38.000000, 37.000000, 16.741017
-38.000000, 37.500000, 17.002093
-38.000000, 38.000000, 17.267783
-38.000000, 38.500000, 17.538137
-38.000000, 39.000000, 17.813209
-38.000000, 39.500000, 18.093055
-38.000000, 40.000000, 18.377731
-38.000000, 40.500000, 18.667296
-38.000000, 41.000000, 18.961811
-38.000000, 41.500000, 19.261338
-38.000000, 42.000000, 19.565947
-38.000000, 42.500000, 19.870838
-37.500000, -42.500000, 19.600284
-37.500000, -42.000000, 19.291567
-37.500000, -41.500000, 18.987981
-37.500000, -41.000000, 18.689458
-37.500000, -40.500000, 18.395935
-37.500000, -40.000000, 18.10735
-37.500000, -39.500000, 17.823643
-37.500000, -39.000000, 17.544757
-37.500000, -38.500000, 17.270636
-37.500000, -38.000000, 17.001224
-37.500000, -37.500000, 16.73647
-37.500000, -37.000000, 16.476322
-37.500000, -36.500000, 16.220731
-37.500000, -36.000000, 15.969648
-37.500000, -35.500000, 15.723028
-37.500000, -35.000000, 15.480824
-37.500000, -34.500000, 15.242993
-37.500000, -34.000000, 15.009493
-37.500000, -33.500000, 14.78028
-37.500000, -33.000000, 14.555315
-37.500000, -32.500000, 14.334558
-37.500000, -32.000000, 14.117972
-37.500000, -31.500000, 13.905518
-37.500000, -31.000000, 13.69716
-37.500000, -30.500000, 13.492862
-37.500000, -30.000000, 13.29259
-37.500000, -29.500000, 13.09631
-37.500000, -29.000000, 12.903989
-37.500000, -28.500000, 12.715595
-37.500000, -28.000000, 12.531095
-37.500000, -27.500000, 12.35046
-37.500000, -27.000000, 12.173658
-37.500000, -26.500000, 12.000661
-37.500000, -26.000000, 11.831438
-37.500000, -25.500000, 11.665963
-37.500000, -25.000000, 11.504206
-37.500000, -24.500000, 11.346141
-37.500000, -24.000000, 11.19174
-37.500000, -23.500000, 11.040978
-37.500000, -23.000000, 10.893828
-37.500000, -22.500000, 10.750265
-37.500000, -22.000000, 10.610264
-37.500000, -21.500000, 10.4738
-37.500000, -21.000000, 10.34085
-37.500000, -20.500000, 10.211389
-37.500000, -20.000000, 10.085395
-37.500000, -19.500000, 9.962843
-37.500000, -19.000000, 9.843713
-37.500000, -18.500000, 9.72798
-37.500000, -18.000000, 9.615624
-37.500000, -17.500000, 9.506622
-37.500000, -17.000000, 9.400955
-37.500000, -16.500000, 9.2986
-37.500000, -16.000000, 9.199538
-37.500000, -15.500000, 9.103749
-37.500000, -15.000000, 9.011212
-37.500000, -14.500000, 8.92191
-37.500000, -14.000000, 8.835822
-37.500000, -13.500000, 8.752931
-37.500000, -13.000000, 8.673219
-37.500000, -12.500000, 8.596668
-37.500000, -12.000000, 8.523261
-37.500000, -11.500000, 8.452982
-37.500000, -11.000000, 8.385815
-37.500000, -10.500000, 8.321745
-37.500000, -10.000000, 8.260756
-37.500000, -9.500000, 8.202834
-37.500000, -9.000000, 8.147966
-37.500000, -8.500000, 8.096138
-37.500000, -8.000000, 8.047339
-37.500000, -7.500000, 8.001555
-37.500000, -7.000000, 7.958777
-37.500000, -6.500000, 7.918993
-37.500000, -6.000000, 7.882195
-37.500000, -5.500000, 7.848372
-37.500000, -5.000000, 7.817518
-37.500000, -4.500000, 7.789623
-37.500000, -4.000000, 7.764682
-37.500000, -3.500000, 7.742689
-37.500000, -3.000000, 7.723638
-37.500000, -2.500000, 7.707526
-37.500000, -2.000000, 7.694348
-37.500000, -1.500000, 7.684102
-37.500000, -1.000000, 7.676787
-37.500000, -0.500000, 7.6724
-37.500000, 0.000000, 7.670941
-37.500000, 0.500000, 7.672411
-37.500000, 1.000000, 7.676812
-37.500000, 1.500000, 7.684145
-37.500000, 2.000000, 7.694412
-37.500000, 2.500000, 7.707618
-37.500000, 3.000000, 7.723768
-37.500000, 3.500000, 7.742865
-37.500000, 4.000000, 7.764915
-37.500000, 4.500000, 7.789926
-37.500000, 5.000000, 7.817904
-37.500000, 5.500000, 7.848857
-37.500000, 6.000000, 7.882793
-37.500000, 6.500000, 7.919723
-37.500000, 7.000000, 7.959654
-37.500000, 7.500000, 8.002599
-37.500000, 8.000000, 8.048567
-37.500000, 8.500000, 8.09757
-37.500000, 9.000000, 8.14962
-37.500000, 9.500000, 8.20473
-37.500000, 10.000000, 8.262913
-37.500000, 10.500000, 8.324182
-37.500000, 11.000000, 8.388552
-37.500000, 11.500000, 8.456036
-37.500000, 12.000000, 8.52665
-37.500000, 12.500000, 8.60041
-37.500000, 13.000000, 8.67733
-37.500000, 13.500000, 8.757428
-37.500000, 14.000000, 8.840719
-37.500000, 14.500000, 8.927221
-37.500000, 15.000000, 9.016951
-37.500000, 15.500000, 9.109927
-37.500000, 16.000000, 9.206168
-37.500000, 16.500000, 9.305691
-37.500000, 17.000000, 9.408515
-37.500000, 17.500000, 9.514661
-37.500000, 18.000000, 9.624146
-37.500000, 18.500000, 9.736992
-37.500000, 19.000000, 9.853219
-37.500000, 19.500000, 9.972847
-37.500000, 20.000000, 10.095898
-37.500000, 20.500000, 10.222393
-37.500000, 21.000000, 10.352354
-37.500000, 21.500000, 10.485804
-37.500000, 22.000000, 10.622764
-37.500000, 22.500000, 10.763259
-37.500000, 23.000000, 10.907312
-37.500000, 23.500000, 11.054948
-37.500000, 24.000000, 11.206189
-37.500000, 24.500000, 11.361063
-37.500000, 25.000000, 11.519594
-37.500000, 25.500000, 11.681808
-37.500000, 26.000000, 11.847733
-37.500000, 26.500000, 12.017395
-37.500000, 27.000000, 12.190822
-37.500000, 27.500000, 12.368043
-37.500000, 28.000000, 12.549087
-37.500000, 28.500000, 12.733984
-37.500000, 29.000000, 12.922763
-37.500000, 29.500000, 13.115458
-37.500000, 30.000000, 13.312098
-37.500000, 30.500000, 13.512718
-37.500000, 31.000000, 13.717351
-37.500000, 31.500000, 13.926032
-37.500000, 32.000000, 14.138795
-37.500000, 32.500000, 14.355677
-37.500000, 33.000000, 14.576716
-37.500000, 33.500000, 14.80195
-37.500000, 34.000000, 15.031418
-37.500000, 34.500000, 15.26516
-37.500000, 35.000000, 15.503219
-37.500000, 35.500000, 15.745637
-37.500000, 36.000000, 15.992458
-37.500000, 36.500000, 16.243728
-37.500000, 37.000000, 16.499493
-37.500000, 37.500000, 16.759802
-37.500000, 38.000000, 17.024704
-37.500000, 38.500000, 17.294251
-37.500000, 39.000000, 17.568494
-37.500000, 39.500000, 17.84749
-37.500000, 40.000000, 18.131294
-37.500000, 40.500000, 18.419963
-37.500000, 41.000000, 18.713559
-37.500000, 41.500000, 19.012142
-37.500000, 42.000000, 19.315781
-37.500000, 42.500000, 19.620798
-37.000000, -42.500000, 19.353842
-37.000000, -42.000000, 19.046081
-37.000000, -41.500000, 18.743424
-37.000000, -41.000000, 18.445806
-37.000000, -40.500000, 18.153165
-37.000000, -40.000000, 17.865438
-37.000000, -39.500000, 17.582567
-37.000000, -39.000000, 17.304496
-37.000000, -38.500000, 17.031167
-37.000000, -38.000000, 16.762529
-37.000000, -37.500000, 16.498528
-37.000000, -37.000000, 16.239115
-37.000000, -36.500000, 15.98424
-37.000000, -36.000000, 15.733856
-37.000000, -35.500000, 15.487917
-37.000000, -35.000000, 15.246379
-37.000000, -34.500000, 15.009196
-37.000000, -34.000000, 14.776329
-37.000000, -33.500000, 14.547734
-37.000000, -33.000000, 14.323372
-37.000000, -32.500000, 14.103205
-37.000000, -32.000000, 13.887194
-37.000000, -31.500000, 13.675303
-37.000000, -31.000000, 13.467494
-37.000000, -30.500000, 13.263734
-37.000000, -30.000000, 13.063988
-37.000000, -29.500000, 12.868222
-37.000000, -29.000000, 12.676404
-37.000000, -28.500000, 12.488501
-37.000000, -28.000000, 12.304483
-37.000000, -27.500000, 12.124319
-37.000000, -27.000000, 11.947978
-37.000000, -26.500000, 11.775433
-37.000000, -26.000000, 11.606653
-37.000000, -25.500000, 11.441611
-37.000000, -25.000000, 11.280279
-37.000000, -24.500000, 11.12263
-37.000000, -24.000000, 10.968638
-37.000000, -23.500000, 10.818275
-37.000000, -23.000000, 10.671518
-37.000000, -22.500000, 10.52834
-37.000000, -22.000000, 10.388716
-37.000000, -21.500000, 10.252623
-37.000000, -21.000000, 10.120035
-37.000000, -20.500000, 9.99093
-37.000000, -20.000000, 9.865284
-37.000000, -19.500000, 9.743074
-37.000000, -19.000000, 9.624278
-37.000000, -18.500000, 9.508874
-37.000000, -18.000000, 9.396838
-37.000000, -17.500000, 9.288151
-37.000000, -17.000000, 9.182791
-37.000000, -16.500000, 9.080737
-37.000000, -16.000000, 8.981969
-37.000000, -15.500000, 8.886466
-37.000000, -15.000000, 8.79421
-37.000000, -14.500000, 8.705179
-37.000000, -14.000000, 8.619357
-37.000000, -13.500000, 8.536724
-37.000000, -13.000000, 8.457262
-37.000000, -12.500000, 8.380953
-37.000000, -12.000000, 8.307781
-37.000000, -11.500000, 8.237729
-37.000000, -11.000000, 8.170781
-37.000000, -10.500000, 8.10692
-37.000000, -10.000000, 8.046132
-37.000000, -9.500000, 7.988403
-37.000000, -9.000000, 7.933719
-37.000000, -8.500000, 7.882066
-37.000000, -8.000000, 7.833431
-37.000000, -7.500000, 7.787804
-37.000000, -7.000000, 7.745171
-37.000000, -6.500000, 7.705524
-37.000000, -6.000000, 7.668852
-37.000000, -5.500000, 7.635145
-37.000000, -5.000000, 7.604396
-37.000000, -4.500000, 7.576597
-37.000000, -4.000000, 7.551742
-37.000000, -3.500000, 7.529823
-37.000000, -3.000000, 7.510836
-37.000000, -2.500000, 7.494777
-37.000000, -2.000000, 7.481641
-37.000000, -1.500000, 7.471427
-37.000000, -1.000000, 7.464132
-37.000000, -0.500000, 7.459754
-37.000000, 0.000000, 7.458295
-37.000000, 0.500000, 7.459754
-37.000000, 1.000000, 7.464132
-37.000000, 1.500000, 7.471432
-37.000000, 2.000000, 7.481657
-37.000000, 2.500000, 7.494809
-37.000000, 3.000000, 7.510894
-37.000000, 3.500000, 7.529917
-37.000000, 4.000000, 7.551883
-37.000000, 4.500000, 7.5768
-37.000000, 5.000000, 7.604674
-37.000000, 5.500000, 7.635513
-37.000000, 6.000000, 7.669327
-37.000000, 6.500000, 7.706124
-37.000000, 7.000000, 7.745914
-37.000000, 7.500000, 7.788708
-37.000000, 8.000000, 7.834517
-37.000000, 8.500000, 7.883353
-37.000000, 9.000000, 7.935227
-37.000000, 9.500000, 7.990153
-37.000000, 10.000000, 8.048143
-37.000000, 10.500000, 8.109211
-37.000000, 11.000000, 8.173373
-37.000000, 11.500000, 8.240641
-37.000000, 12.000000, 8.311031
-37.000000, 12.500000, 8.384559
-37.000000, 13.000000, 8.461241
-37.000000, 13.500000, 8.541093
-37.000000, 14.000000, 8.624131
-37.000000, 14.500000, 8.710373
-37.000000, 15.000000, 8.799836
-37.000000, 15.500000, 8.892538
-37.000000, 16.000000, 8.988498
-37.000000, 16.500000, 9.087732
-37.000000, 17.000000, 9.190262
-37.000000, 17.500000, 9.296105
-37.000000, 18.000000, 9.405282
-37.000000, 18.500000, 9.517812
-37.000000, 19.000000, 9.633715
-37.000000, 19.500000, 9.753013
-37.000000, 20.000000, 9.875726
-37.000000, 20.500000, 10.001876
-37.000000, 21.000000, 10.131485
-37.000000, 21.500000, 10.264574
-37.000000, 22.000000, 10.401167
-37.000000, 22.500000, 10.541287
-37.000000, 23.000000, 10.684956
-37.000000, 23.500000, 10.832199
-37.000000, 24.000000, 10.983041
-37.000000, 24.500000, 11.137505
-37.000000, 25.000000, 11.295619
-37.000000, 25.500000, 11.457406
-37.000000, 26.000000, 11.622894
-37.000000, 26.500000, 11.792111
-37.000000, 27.000000, 11.965082
-37.000000, 27.500000, 12.141838
-37.000000, 28.000000, 12.322405
-37.000000, 28.500000, 12.506815
-37.000000, 29.000000, 12.695097
-37.000000, 29.500000, 12.887282
-37.000000, 30.000000, 13.083401
-37.000000, 30.500000, 13.283488
-37.000000, 31.000000, 13.487576
-37.000000, 31.500000, 13.695697
-37.000000, 32.000000, 13.907889
-37.000000, 32.500000, 14.124186
-37.000000, 33.000000, 14.344625
-37.000000, 33.500000, 14.569245
-37.000000, 34.000000, 14.798084
-37.000000, 34.500000, 15.031182
-37.000000, 35.000000, 15.26858
-37.000000, 35.500000, 15.510321
-37.000000, 36.000000, 15.756449
-37.000000, 36.500000, 16.007008
-37.000000, 37.000000, 16.262044
-37.000000, 37.500000, 16.521605
-37.000000, 38.000000, 16.785741
-37.000000, 38.500000, 17.0545
-37.000000, 39.000000, 17.327937
-37.000000, 39.500000, 17.606105
-37.000000, 40.000000, 17.889058
-37.000000, 40.500000, 18.176856
-37.000000, 41.000000, 18.469556
-37.000000, 41.500000, 18.76722
-37.000000, 42.000000, 19.069912
-37.000000, 42.500000, 19.373975
-36.500000, -42.500000, 19.111686
-36.500000, -42.000000, 18.804856
-36.500000, -41.500000, 18.503105
-36.500000, -41.000000, 18.206369
-36.500000, -40.500000, 17.914585
-36.500000, -40.000000, 17.627694
-36.500000, -39.500000, 17.345638
-36.500000, -39.000000, 17.068359
-36.500000, -38.500000, 16.795803
-36.500000, -38.000000, 16.527917
-36.500000, -37.500000, 16.264649
-36.500000, -37.000000, 16.005951
-36.500000, -36.500000, 15.751773
-36.500000, -36.000000, 15.502069
-36.500000, -35.500000, 15.256793
-36.500000, -35.000000, 15.015901
-36.500000, -34.500000, 14.779349
-36.500000, -34.000000, 14.547097
-36.500000, -33.500000, 14.319104
-36.500000, -33.000000, 14.095329
-36.500000, -32.500000, 13.875735
-36.500000, -32.000000, 13.660284
-36.500000, -31.500000, 13.448939
-36.500000, -31.000000, 13.241665
-36.500000, -30.500000, 13.038427
-36.500000, -30.000000, 12.839191
-36.500000, -29.500000, 12.643925
-36.500000, -29.000000, 12.452595
-36.500000, -28.500000, 12.265171
-36.500000, -28.000000, 12.081621
-36.500000, -27.500000, 11.901914
-36.500000, -27.000000, 11.726023
-36.500000, -26.500000, 11.553916
-36.500000, -26.000000, 11.385567
-36.500000, -25.500000, 11.220947
-36.500000, -25.000000, 11.060028
-36.500000, -24.500000, 10.902785
-36.500000, -24.000000, 10.74919
-36.500000, -23.500000, 10.599217
-36.500000, -23.000000, 10.452842
-36.500000, -22.500000, 10.310038
-36.500000, -22.000000, 10.170782
-36.500000, -21.500000, 10.03505
-36.500000, -21.000000, 9.902816
-36.500000, -20.500000, 9.774058
-36.500000, -20.000000, 9.648752
-36.500000, -19.500000, 9.526877
-36.500000, -19.000000, 9.408408
-36.500000, -18.500000, 9.293324
-36.500000, -18.000000, 9.181603
-36.500000, -17.500000, 9.073224
-36.500000, -17.000000, 8.968165
-36.500000, -16.500000, 8.866406
-36.500000, -16.000000, 8.767926
-36.500000, -15.500000, 8.672704
-36.500000, -15.000000, 8.580722
-36.500000, -14.500000, 8.49196
-36.500000, -14.000000, 8.406398
-36.500000, -13.500000, 8.324019
-36.500000, -13.000000, 8.244803
-36.500000, -12.500000, 8.168734
-36.500000, -12.000000, 8.095793
-36.500000, -11.500000, 8.025965
-36.500000, -11.000000, 7.959232
-36.500000, -10.500000, 7.895579
-36.500000, -10.000000, 7.83499
-36.500000, -9.500000, 7.777451
-36.500000, -9.000000, 7.722949
-36.500000, -8.500000, 7.671468
-36.500000, -8.000000, 7.622998
-36.500000, -7.500000, 7.577524
-36.500000, -7.000000, 7.535037
-36.500000, -6.500000, 7.495524
-36.500000, -6.000000, 7.458977
-36.500000, -5.500000, 7.425386
-36.500000, -5.000000, 7.394742
-36.500000, -4.500000, 7.367037
-36.500000, -4.000000, 7.342265
-36.500000, -3.500000, 7.32042
-36.500000, -3.000000, 7.301497
-36.500000, -2.500000, 7.28549
-36.500000, -2.000000, 7.272396
-36.500000, -1.500000, 7.262213
-36.500000, -1.000000, 7.254938
-36.500000, -0.500000, 7.25057
-36.500000, 0.000000, 7.24911
-36.500000, 0.500000, 7.250557
-36.500000, 1.000000, 7.254913
-36.500000, 1.500000, 7.26218
-36.500000, 2.000000, 7.272361
-36.500000, 2.500000, 7.28546
-36.500000, 3.000000, 7.301481
-36.500000, 3.500000, 7.32043
-36.500000, 4.000000, 7.342312
-36.500000, 4.500000, 7.367135
-36.500000, 5.000000, 7.394906
-36.500000, 5.500000, 7.425633
-36.500000, 6.000000, 7.459324
-36.500000, 6.500000, 7.49599
-36.500000, 7.000000, 7.53564
-36.500000, 7.500000, 7.578285
-36.500000, 8.000000, 7.623937
-36.500000, 8.500000, 7.672606
-36.500000, 9.000000, 7.724306
-36.500000, 9.500000, 7.779049
-36.500000, 10.000000, 7.836849
-36.500000, 10.500000, 7.89772
-36.500000, 11.000000, 7.961676
-36.500000, 11.500000, 8.028731
-36.500000, 12.000000, 8.098901
-36.500000, 12.500000, 8.172201
-36.500000, 13.000000, 8.248649
-36.500000, 13.500000, 8.328259
-36.500000, 14.000000, 8.411048
-36.500000, 14.500000, 8.497035
-36.500000, 15.000000, 8.586236
-36.500000, 15.500000, 8.678669
-36.500000, 16.000000, 8.774353
-36.500000, 16.500000, 8.873305
-36.500000, 17.000000, 8.975546
-36.500000, 17.500000, 9.081094
-36.500000, 18.000000, 9.189968
-36.500000, 18.500000, 9.302189
-36.500000, 19.000000, 9.417777
-36.500000, 19.500000, 9.536752
-36.500000, 20.000000, 9.659135
-36.500000, 20.500000, 9.784949
-36.500000, 21.000000, 9.914214
-36.500000, 21.500000, 10.046952
-36.500000, 22.000000, 10.183186
-36.500000, 22.500000, 10.32294
-36.500000, 23.000000, 10.466235
-36.500000, 23.500000, 10.613097
-36.500000, 24.000000, 10.763548
-36.500000, 24.500000, 10.917615
-36.500000, 25.000000, 11.075321
-36.500000, 25.500000, 11.236693
-36.500000, 26.000000, 11.401757
-36.500000, 26.500000, 11.570539
-36.500000, 27.000000, 11.743067
-36.500000, 27.500000, 11.919369
-36.500000, 28.000000, 12.099474
-36.500000, 28.500000, 12.28341
-36.500000, 29.000000, 12.471207
-36.500000, 29.500000, 12.662896
-36.500000, 30.000000, 12.858509
-36.500000, 30.500000, 13.058077
-36.500000, 31.000000, 13.261633
-36.500000, 31.500000, 13.469212
-36.500000, 32.000000, 13.680847
-36.500000, 32.500000, 13.896574
-36.500000, 33.000000, 14.11643
-36.500000, 33.500000, 14.340452
-36.500000, 34.000000, 14.568679
-36.500000, 34.500000, 14.80115
-36.500000, 35.000000, 15.037905
-36.500000, 35.500000, 15.278988
-36.500000, 36.000000, 15.52444
-36.500000, 36.500000, 15.774307
-36.500000, 37.000000, 16.028633
-36.500000, 37.500000, 16.287466
-36.500000, 38.000000, 16.550854
-36.500000, 38.500000, 16.818848
-36.500000, 39.000000, 17.091499
-36.500000, 39.500000, 17.36886
-36.500000, 40.000000, 17.650986
-36.500000, 40.500000, 17.937933
-36.500000, 41.000000, 18.229761
-36.500000, 41.500000, 18.526529
-36.500000, 42.000000, 18.828301
-36.500000, 42.500000, 19.135146
-36.000000, -42.500000, 18.873776
-36.000000, -42.000000, 18.567852
-36.000000, -41.500000, 18.266983
-36.000000, -41.000000, 17.971106
-36.000000, -40.500000, 17.680158
-36.000000, -40.000000, 17.394081
-36.000000, -39.500000, 17.112817
-36.000000, -39.000000, 16.836309
-36.000000, -38.500000, 16.564505
-36.000000, -38.000000, 16.297351
-36.000000, -37.500000, 16.034798
-36.000000, -37.000000, 15.776795
-36.000000, -36.500000, 15.523295
-36.000000, -36.000000, 15.274252
-36.000000, -35.500000, 15.029621
-36.000000, -35.000000, 14.789358
-36.000000, -34.500000, 14.55342
-36.000000, -34.000000, 14.321766
-36.000000, -33.500000, 14.094357
-36.000000, -33.000000, 13.871153
-36.000000, -32.500000, 13.652115
-36.000000, -32.000000, 13.437208
-36.000000, -31.500000, 13.226395
-36.000000, -31.000000, 13.01964
-36.000000, -30.500000, 12.81691
-36.000000, -30.000000, 12.618171
-36.000000, -29.500000, 12.423389
-36.000000, -29.000000, 12.232534
-36.000000, -28.500000, 12.045574
-36.000000, -28.000000, 11.862479
-36.000000, -27.500000, 11.683218
-36.000000, -27.000000, 11.507762
-36.000000, -26.500000, 11.336083
-36.000000, -26.000000, 11.168152
-36.000000, -25.500000, 11.003942
-36.000000, -25.000000, 10.843425
-36.000000, -24.500000, 10.686576
-36.000000, -24.000000, 10.533368
-36.000000, -23.500000, 10.383774
-36.000000, -23.000000, 10.237771
-36.000000, -22.500000, 10.095333
-36.000000, -22.000000, 9.956435
-36.000000, -21.500000, 9.821054
-36.000000, -21.000000, 9.689165
-36.000000, -20.500000, 9.560746
-36.000000, -20.000000, 9.435772
-36.000000, -19.500000, 9.314223
-36.000000, -19.000000, 9.196074
-36.000000, -18.500000, 9.081303
-36.000000, -18.000000, 8.96989
-36.000000, -17.500000, 8.861812
-36.000000, -17.000000, 8.757048
-36.000000, -16.500000, 8.655578
-36.000000, -16.000000, 8.557381
-36.000000, -15.500000, 8.462436
-36.000000, -15.000000, 8.370723
-36.000000, -14.500000, 8.282224
-36.000000, -14.000000, 8.196919
-36.000000, -13.500000, 8.114789
-36.000000, -13.000000, 8.035817
-36.000000, -12.500000, 7.959983
-36.000000, -12.000000, 7.88727
-36.000000, -11.500000, 7.817662
-36.000000, -11.000000, 7.751142
-36.000000, -10.500000, 7.687694
-36.000000, -10.000000, 7.627302
-36.000000, -9.500000, 7.569952
-36.000000, -9.000000, 7.515629
-36.000000, -8.500000, 7.46432
-36.000000, -8.000000, 7.416011
-36.000000, -7.500000, 7.37069
-36.000000, -7.000000, 7.328346
-36.000000, -6.500000, 7.288968
-36.000000, -6.000000, 7.252544
-36.000000, -5.500000, 7.219067
-36.000000, -5.000000, 7.188527
-36.000000, -4.500000, 7.160916
-36.000000, -4.000000, 7.136228
-36.000000, -3.500000, 7.114456
-36.000000, -3.000000, 7.095595
-36.000000, -2.500000, 7.07964
-36.000000, -2.000000, 7.066587
-36.000000, -1.500000, 7.056434
-36.000000, -1.000000, 7.049179
-36.000000, -0.500000, 7.044821
-36.000000, 0.000000, 7.043359
-36.000000, 0.500000, 7.044794
-36.000000, 1.000000, 7.049127
-36.000000, 1.500000, 7.056361
-36.000000, 2.000000, 7.066499
-36.000000, 2.500000, 7.079544
-36.000000, 3.000000, 7.095502
-36.000000, 3.500000, 7.114377
-36.000000, 4.000000, 7.136176
-36.000000, 4.500000, 7.160906
-36.000000, 5.000000, 7.188573
-36.000000, 5.500000, 7.219188
-36.000000, 6.000000, 7.252758
-36.000000, 6.500000, 7.289294
-36.000000, 7.000000, 7.328805
-36.000000, 7.500000, 7.371303
-36.000000, 8.000000, 7.416798
-36.000000, 8.500000, 7.465303
-36.000000, 9.000000, 7.516831
-36.000000, 9.500000, 7.571394
-36.000000, 10.000000, 7.629006
-36.000000, 10.500000, 7.689681
-36.000000, 11.000000, 7.753434
-36.000000, 11.500000, 7.820279
-36.000000, 12.000000, 7.890232
-36.000000, 12.500000, 7.963309
-36.000000, 13.000000, 8.039525
-36.000000, 13.500000, 8.118898
-36.000000, 14.000000, 8.201443
-36.000000, 14.500000, 8.287179
-36.000000, 15.000000, 8.376123
-36.000000, 15.500000, 8.468293
-36.000000, 16.000000, 8.563706
-36.000000, 16.500000, 8.662382
-36.000000, 17.000000, 8.76434
-36.000000, 17.500000, 8.869599
-36.000000, 18.000000, 8.978178
-36.000000, 18.500000, 9.090096
-36.000000, 19.000000, 9.205376
-36.000000, 19.500000, 9.324036
-36.000000, 20.000000, 9.446098
-36.000000, 20.500000, 9.571583
-36.000000, 21.000000, 9.700513
-36.000000, 21.500000, 9.832909
-36.000000, 22.000000, 9.968794
-36.000000, 22.500000, 10.10819
-36.000000, 23.000000, 10.251122
-36.000000, 23.500000, 10.397611
-36.000000, 24.000000, 10.547683
-36.000000, 24.500000, 10.701362
-36.000000, 25.000000, 10.858673
-36.000000, 25.500000, 11.01964
-36.000000, 26.000000, 11.184291
-36.000000, 26.500000, 11.352651
-36.000000, 27.000000, 11.524748
-36.000000, 27.500000, 11.700609
-36.000000, 28.000000, 11.880263
-36.000000, 28.500000, 12.063738
-36.000000, 29.000000, 12.251064
-36.000000, 29.500000, 12.442271
-36.000000, 30.000000, 12.63739
-36.000000, 30.500000, 12.836454
-36.000000, 31.000000, 13.039494
-36.000000, 31.500000, 13.246543
-36.000000, 32.000000, 13.457637
-36.000000, 32.500000, 13.67281
-36.000000, 33.000000, 13.892098
-36.000000, 33.500000, 14.115539
-36.000000, 34.000000, 14.34317
-36.000000, 34.500000, 14.57503
-36.000000, 35.000000, 14.811161
-36.000000, 35.500000, 15.051602
-36.000000, 36.000000, 15.296397
-36.000000, 36.500000, 15.545589
-36.000000, 37.000000, 15.799224
-36.000000, 37.500000, 16.057348
-36.000000, 38.000000, 16.32001
-36.000000, 38.500000, 16.587257
-36.000000, 39.000000, 16.859142
-36.000000, 39.500000, 17.135718
-36.000000, 40.000000, 17.417037
-36.000000, 40.500000, 17.703157
-36.000000, 41.000000, 17.994134
-36.000000, 41.500000, 18.29003
-36.000000, 42.000000, 18.590904
-36.000000, 42.500000, 18.896829
-35.500000, -42.500000, 18.640072
-35.500000, -42.000000, 18.335031
-35.500000, -41.500000, 18.035021
-35.500000, -41.000000, 17.739979
-35.500000, -40.500000, 17.449846
-35.500000, -40.000000, 17.164561
-35.500000, -39.500000, 16.884068
-35.500000, -39.000000, 16.608312
-35.500000, -38.500000, 16.337239
-35.500000, -38.000000, 16.070798
-35.500000, -37.500000, 15.808939
-35.500000, -37.000000, 15.551613
-35.500000, -36.500000, 15.298773
-35.500000, -36.000000, 15.050373
-35.500000, -35.500000, 14.806368
-35.500000, -35.000000, 14.566717
-35.500000, -34.500000, 14.331375
-35.500000, -34.000000, 14.100304
-35.500000, -33.500000, 13.873462
-35.500000, -33.000000, 13.650812
-35.500000, -32.500000, 13.432316
-35.500000, -32.000000, 13.217937
-35.500000, -31.500000, 13.00764
-35.500000, -31.000000, 12.80139
-35.500000, -30.500000, 12.599153
-35.500000, -30.000000, 12.400896
-35.500000, -29.500000, 12.206586
-35.500000, -29.000000, 12.016192
-35.500000, -28.500000, 11.829683
-35.500000, -28.000000, 11.64703
-35.500000, -27.500000, 11.468201
-35.500000, -27.000000, 11.293169
-35.500000, -26.500000, 11.121904
-35.500000, -26.000000, 10.95438
-35.500000, -25.500000, 10.790568
-35.500000, -25.000000, 10.630443
-35.500000, -24.500000, 10.473976
-35.500000, -24.000000, 10.321144
-35.500000, -23.500000, 10.17192
-35.500000, -23.000000, 10.026278
-35.500000, -22.500000, 9.884195
-35.500000, -22.000000, 9.745646
-35.500000, -21.500000, 9.610608
-35.500000, -21.000000, 9.479055
-35.500000, -20.500000, 9.350966
-35.500000, -20.000000, 9.226317
-35.500000, -19.500000, 9.105085
-35.500000, -19.000000, 8.987249
-35.500000, -18.500000, 8.872785
-35.500000, -18.000000, 8.761672
-35.500000, -17.500000, 8.653889
-35.500000, -17.000000, 8.549415
-35.500000, -16.500000, 8.448227
-35.500000, -16.000000, 8.350307
-35.500000, -15.500000, 8.255633
-35.500000, -15.000000, 8.164186
-35.500000, -14.500000, 8.075946
-35.500000, -14.000000, 7.990893
-35.500000, -13.500000, 7.909009
-35.500000, -13.000000, 7.830275
-35.500000, -12.500000, 7.754674
-35.500000, -12.000000, 7.682186
-35.500000, -11.500000, 7.612796
-35.500000, -11.000000, 7.546486
-35.500000, -10.500000, 7.483241
-35.500000, -10.000000, 7.423043
-35.500000, -9.500000, 7.36588
-35.500000, -9.000000, 7.311735
-35.500000, -8.500000, 7.260595
-35.500000, -8.000000, 7.212446
-35.500000, -7.500000, 7.167277
-35.500000, -7.000000, 7.125075
-35.500000, -6.500000, 7.085829
-35.500000, -6.000000, 7.049529
-35.500000, -5.500000, 7.016165
-35.500000, -5.000000, 6.985728
-35.500000, -4.500000, 6.95821
-35.500000, -4.000000, 6.933605
-35.500000, -3.500000, 6.911905
-35.500000, -3.000000, 6.893105
-35.500000, -2.500000, 6.877202
-35.500000, -2.000000, 6.86419
-35.500000, -1.500000, 6.854067
-35.500000, -1.000000, 6.846831
-35.500000, -0.500000, 6.842482
-35.500000, 0.000000, 6.841018
-35.500000, 0.500000, 6.842441
-35.500000, 1.000000, 6.846751
-35.500000, 1.500000, 6.853952
-35.500000, 2.000000, 6.864047
-35.500000, 2.500000, 6.877038
-35.500000, 3.000000, 6.892932
-35.500000, 3.500000, 6.911733
-35.500000, 4.000000, 6.933449
-35.500000, 4.500000, 6.958086
-35.500000, 5.000000, 6.985651
-35.500000, 5.500000, 7.016155
-35.500000, 6.000000, 7.049604
-35.500000, 6.500000, 7.086011
-35.500000, 7.000000, 7.125384
-35.500000, 7.500000, 7.167735
-35.500000, 8.000000, 7.213076
-35.500000, 8.500000, 7.261418
-35.500000, 9.000000, 7.312775
-35.500000, 9.500000, 7.36716
-35.500000, 10.000000, 7.424587
-35.500000, 10.500000, 7.485069
-35.500000, 11.000000, 7.548622
-35.500000, 11.500000, 7.61526
-35.500000, 12.000000, 7.684999
-35.500000, 12.500000, 7.757856
-35.500000, 13.000000, 7.833845
-35.500000, 13.500000, 7.912984
-35.500000, 14.000000, 7.99529
-35.500000, 14.500000, 8.080779
-35.500000, 15.000000, 8.169471
-35.500000, 15.500000, 8.261382
-35.500000, 16.000000, 8.356531
-35.500000, 16.500000, 8.454937
-35.500000, 17.000000, 8.556618
-35.500000, 17.500000, 8.661594
-35.500000, 18.000000, 8.769884
-35.500000, 18.500000, 8.881508
-35.500000, 19.000000, 8.996486
-35.500000, 19.500000, 9.114839
-35.500000, 20.000000, 9.236587
-35.500000, 20.500000, 9.361752
-35.500000, 21.000000, 9.490354
-35.500000, 21.500000, 9.622417
-35.500000, 22.000000, 9.757962
-35.500000, 22.500000, 9.897011
-35.500000, 23.000000, 10.039588
-35.500000, 23.500000, 10.185716
-35.500000, 24.000000, 10.335418
-35.500000, 24.500000, 10.48872
-35.500000, 25.000000, 10.645645
-35.500000, 25.500000, 10.80622
-35.500000, 26.000000, 10.970468
-35.500000, 26.500000, 11.138418
-35.500000, 27.000000, 11.310096
-35.500000, 27.500000, 11.485528
-35.500000, 28.000000, 11.664743
-35.500000, 28.500000, 11.84777
-35.500000, 29.000000, 12.034638
-35.500000, 29.500000, 12.225376
-35.500000, 30.000000, 12.420016
-35.500000, 30.500000, 12.618589
-35.500000, 31.000000, 12.821126
-35.500000, 31.500000, 13.027662
-35.500000, 32.000000, 13.238229
-35.500000, 32.500000, 13.452863
-35.500000, 33.000000, 13.671599
-35.500000, 33.500000, 13.894474
-35.500000, 34.000000, 14.121525
-35.500000, 34.500000, 14.352792
-35.500000, 35.000000, 14.588313
-35.500000, 35.500000, 14.82813
-35.500000, 36.000000, 15.072285
-35.500000, 36.500000, 15.320821
-35.500000, 37.000000, 15.573783
-35.500000, 37.500000, 15.831217
-35.500000, 38.000000, 16.09317
-35.500000, 38.500000, 16.359692
-35.500000, 39.000000, 16.630831
-35.500000, 39.500000, 16.906641
-35.500000, 40.000000, 17.187175
-35.500000, 40.500000, 17.472488
-35.500000, 41.000000, 17.762637
-35.500000, 41.500000, 18.057682
-35.500000, 42.000000, 18.357683
-35.500000, 42.500000, 18.66271
-35.000000, -42.500000, 18.410534
-35.000000, -42.000000, 18.106353
-35.000000, -41.500000, 17.80718
-35.000000, -41.000000, 17.512953
-35.000000, -40.500000, 17.223611
-35.000000, -40.000000, 16.939098
-35.000000, -39.500000, 16.659356
-35.000000, -39.000000, 16.384331
-35.000000, -38.500000, 16.11397
-35.000000, -38.000000, 15.848223
-35.000000, -37.500000, 15.58704
-35.000000, -37.000000, 15.330372
-35.000000, -36.500000, 15.078173
-35.000000, -36.000000, 14.830399
-35.000000, -35.500000, 14.587004
-35.000000, -35.000000, 14.347946
-35.000000, -34.500000, 14.113185
-35.000000, -34.000000, 13.882679
-35.000000, -33.500000, 13.656389
-35.000000, -33.000000, 13.434278
-35.000000, -32.500000, 13.216308
-35.000000, -32.000000, 13.002442
-35.000000, -31.500000, 12.792647
-35.000000, -31.000000, 12.586886
-35.000000, -30.500000, 12.385128
-35.000000, -30.000000, 12.187339
-35.000000, -29.500000, 11.993487
-35.000000, -29.000000, 11.803541
-35.000000, -28.500000, 11.61747
-35.000000, -28.000000, 11.435245
-35.000000, -27.500000, 11.256836
-35.000000, -27.000000, 11.082215
-35.000000, -26.500000, 10.911353
-35.000000, -26.000000, 10.744224
-35.000000, -25.500000, 10.580799
-35.000000, -25.000000, 10.421053
-35.000000, -24.500000, 10.264959
-35.000000, -24.000000, 10.112492
-35.000000, -23.500000, 9.963626
-35.000000, -23.000000, 9.818337
-35.000000, -22.500000, 9.6766
-35.000000, -22.000000, 9.53839
-35.000000, -21.500000, 9.403685
-35.000000, -21.000000, 9.27246
-35.000000, -20.500000, 9.144693
-35.000000, -20.000000, 9.02036
-35.000000, -19.500000, 8.899439
-35.000000, -19.000000, 8.781907
-35.000000, -18.500000, 8.667743
-35.000000, -18.000000, 8.556924
-35.000000, -17.500000, 8.449429
-35.000000, -17.000000, 8.345238
-35.000000, -16.500000, 8.244328
-35.000000, -16.000000, 8.146679
-35.000000, -15.500000, 8.052272
-35.000000, -15.000000, 7.961085
-35.000000, -14.500000, 7.873099
-35.000000, -14.000000, 7.788294
-35.000000, -13.500000, 7.706652
-35.000000, -13.000000, 7.628154
-35.000000, -12.500000, 7.552781
-35.000000, -12.000000, 7.480516
-35.000000, -11.500000, 7.41134
-35.000000, -11.000000, 7.345238
-35.000000, -10.500000, 7.282193
-35.000000, -10.000000, 7.222188
-35.000000, -9.500000, 7.165209
-35.000000, -9.000000, 7.11124
-35.000000, -8.500000, 7.060268
-35.000000, -8.000000, 7.012279
-35.000000, -7.500000, 6.967259
-35.000000, -7.000000, 6.925198
-35.000000, -6.500000, 6.886084
-35.000000, -6.000000, 6.849906
-35.000000, -5.500000, 6.816654
-35.000000, -5.000000, 6.786319
-35.000000, -4.500000, 6.758894
-35.000000, -4.000000, 6.73437
-35.000000, -3.500000, 6.712742
-35.000000, -3.000000, 6.694004
-35.000000, -2.500000, 6.678151
-35.000000, -2.000000, 6.665179
-35.000000, -1.500000, 6.655086
-35.000000, -1.000000, 6.647869
-35.000000, -0.500000, 6.643528
-35.000000, 0.000000, 6.642063
-35.000000, 0.500000, 6.643473
-35.000000, 1.000000, 6.64776
-35.000000, 1.500000, 6.654928
-35.000000, 2.000000, 6.664978
-35.000000, 2.500000, 6.677916
-35.000000, 3.000000, 6.693746
-35.000000, 3.500000, 6.712474
-35.000000, 4.000000, 6.734107
-35.000000, 4.500000, 6.758651
-35.000000, 5.000000, 6.786115
-35.000000, 5.500000, 6.816507
-35.000000, 6.000000, 6.849837
-35.000000, 6.500000, 6.886115
-35.000000, 7.000000, 6.925351
-35.000000, 7.500000, 6.967557
-35.000000, 8.000000, 7.012744
-35.000000, 8.500000, 7.060926
-35.000000, 9.000000, 7.112114
-35.000000, 9.500000, 7.166323
-35.000000, 10.000000, 7.223566
-35.000000, 10.500000, 7.283858
-35.000000, 11.000000, 7.347214
-35.000000, 11.500000, 7.413648
-35.000000, 12.000000, 7.483176
-35.000000, 12.500000, 7.555816
-35.000000, 13.000000, 7.631582
-35.000000, 13.500000, 7.710491
-35.000000, 14.000000, 7.792562
-35.000000, 14.500000, 7.87781
-35.000000, 15.000000, 7.966254
-35.000000, 15.500000, 8.057912
-35.000000, 16.000000, 8.152802
-35.000000, 16.500000, 8.250943
-35.000000, 17.000000, 8.352353
-35.000000, 17.500000, 8.457053
-35.000000, 18.000000, 8.565061
-35.000000, 18.500000, 8.676396
-35.000000, 19.000000, 8.791081
-35.000000, 19.500000, 8.909134
-35.000000, 20.000000, 9.030576
-35.000000, 20.500000, 9.155428
-35.000000, 21.000000, 9.283713
-35.000000, 21.500000, 9.415451
-35.000000, 22.000000, 9.550664
-35.000000, 22.500000, 9.689375
-35.000000, 23.000000, 9.831607
-35.000000, 23.500000, 9.977383
-35.000000, 24.000000, 10.126726
-35.000000, 24.500000, 10.279661
-35.000000, 25.000000, 10.436212
-35.000000, 25.500000, 10.596404
-35.000000, 26.000000, 10.760262
-35.000000, 26.500000, 10.927813
-35.000000, 27.000000, 11.099082
-35.000000, 27.500000, 11.274098
-35.000000, 28.000000, 11.452887
-35.000000, 28.500000, 11.635479
-35.000000, 29.000000, 11.821901
-35.000000, 29.500000, 12.012184
-35.000000, 30.000000, 12.206357
-35.000000, 30.500000, 12.404453
-35.000000, 31.000000, 12.606502
-35.000000, 31.500000, 12.812538
-35.000000, 32.000000, 13.022593
-35.000000, 32.500000, 13.236703
-35.000000, 33.000000, 13.454902
-35.000000, 33.500000, 13.677226
-35.000000, 34.000000, 13.903714
-35.000000, 34.500000, 14.134402
-35.000000, 35.000000, 14.369331
-35.000000, 35.500000, 14.608541
-35.000000, 36.000000, 14.852073
-35.000000, 36.500000, 15.099971
-35.000000, 37.000000, 15.352277
-35.000000, 37.500000, 15.609039
-35.000000, 38.000000, 15.870303
-35.000000, 38.500000, 16.136116
-35.000000, 39.000000, 16.40653
-35.000000, 39.500000, 16.681594
-35.000000, 40.000000, 16.961363
-35.000000, 40.500000, 17.24589
-35.000000, 41.000000, 17.535233
-35.000000, 41.500000, 17.829449
-35.000000, 42.000000, 18.128599
-35.000000, 42.500000, 18.432751
-34.500000, -42.500000, 18.185125
-34.500000, -42.000000, 17.881782
-34.500000, -41.500000, 17.583424
-34.500000, -41.000000, 17.289989
-34.500000, -40.500000, 17.00142
-34.500000, -40.000000, 16.717657
-34.500000, -39.500000, 16.438646
-34.500000, -39.000000, 16.164333
-34.500000, -38.500000, 15.894665
-34.500000, -38.000000, 15.629593
-34.500000, -37.500000, 15.369067
-34.500000, -37.000000, 15.11304
-34.500000, -36.500000, 14.861465
-34.500000, -36.000000, 14.614298
-34.500000, -35.500000, 14.371496
-34.500000, -35.000000, 14.133017
-34.500000, -34.500000, 13.898819
-34.500000, -34.000000, 13.668862
-34.500000, -33.500000, 13.443109
-34.500000, -33.000000, 13.22152
-34.500000, -32.500000, 13.004061
-34.500000, -32.000000, 12.790694
-34.500000, -31.500000, 12.581385
-34.500000, -31.000000, 12.3761
-34.500000, -30.500000, 12.174807
-34.500000, -30.000000, 11.977472
-34.500000, -29.500000, 11.784064
-34.500000, -29.000000, 11.594552
-34.500000, -28.500000, 11.408906
-34.500000, -28.000000, 11.227097
-34.500000, -27.500000, 11.049096
-34.500000, -27.000000, 10.874874
-34.500000, -26.500000, 10.704403
-34.500000, -26.000000, 10.537657
-34.500000, -25.500000, 10.374608
-34.500000, -25.000000, 10.21523
-34.500000, -24.500000, 10.059498
-34.500000, -24.000000, 9.907386
-34.500000, -23.500000, 9.758868
-34.500000, -23.000000, 9.613921
-34.500000, -22.500000, 9.47252
-34.500000, -22.000000, 9.334641
-34.500000, -21.500000, 9.20026
-34.500000, -21.000000, 9.069354
-34.500000, -20.500000, 8.9419
-34.500000, -20.000000, 8.817875
-34.500000, -19.500000, 8.697257
-34.500000, -19.000000, 8.580023
-34.500000, -18.500000, 8.466151
-34.500000, -18.000000, 8.355619
-34.500000, -17.500000, 8.248407
-34.500000, -17.000000, 8.144492
-34.500000, -16.500000, 8.043854
-34.500000, -16.000000, 7.946472
-34.500000, -15.500000, 7.852325
-34.500000, -15.000000, 7.761394
-34.500000, -14.500000, 7.673658
-34.500000, -14.000000, 7.589097
-34.500000, -13.500000, 7.507693
-34.500000, -13.000000, 7.429427
-34.500000, -12.500000, 7.35428
-34.500000, -12.000000, 7.282233
-34.500000, -11.500000, 7.21327
-34.500000, -11.000000, 7.147373
-34.500000, -10.500000, 7.084526
-34.500000, -10.000000, 7.024711
-34.500000, -9.500000, 6.967915
-34.500000, -9.000000, 6.914121
-34.500000, -8.500000, 6.863315
-34.500000, -8.000000, 6.815483
-34.500000, -7.500000, 6.770613
-34.500000, -7.000000, 6.728691
-34.500000, -6.500000, 6.689707
-34.500000, -6.000000, 6.65365
-34.500000, -5.500000, 6.62051
-34.500000, -5.000000, 6.590277
-34.500000, -4.500000, 6.562943
-34.500000, -4.000000, 6.538501
-34.500000, -3.500000, 6.516944
-34.500000, -3.000000, 6.498266
-34.500000, -2.500000, 6.482463
-34.500000, -2.000000, 6.469531
-34.500000, -1.500000, 6.459467
-34.500000, -1.000000, 6.452269
-34.500000, -0.500000, 6.447936
-34.500000, 0.000000, 6.446468
-34.500000, 0.500000, 6.447865
-34.500000, 1.000000, 6.452129
-34.500000, 1.500000, 6.459263
-34.500000, 2.000000, 6.46927
-34.500000, 2.500000, 6.482154
-34.500000, 3.000000, 6.497921
-34.500000, 3.500000, 6.516575
-34.500000, 4.000000, 6.538125
-34.500000, 4.500000, 6.562577
-34.500000, 5.000000, 6.589939
-34.500000, 5.500000, 6.620221
-34.500000, 6.000000, 6.653432
-34.500000, 6.500000, 6.689582
-34.500000, 7.000000, 6.728682
-34.500000, 7.500000, 6.770744
-34.500000, 8.000000, 6.815779
-34.500000, 8.500000, 6.863801
-34.500000, 9.000000, 6.914823
-34.500000, 9.500000, 6.968857
-34.500000, 10.000000, 7.025919
-34.500000, 10.500000, 7.086023
-34.500000, 11.000000, 7.149184
-34.500000, 11.500000, 7.215417
-34.500000, 12.000000, 7.284738
-34.500000, 12.500000, 7.357164
-34.500000, 13.000000, 7.432711
-34.500000, 13.500000, 7.511395
-34.500000, 14.000000, 7.593234
-34.500000, 14.500000, 7.678245
-34.500000, 15.000000, 7.766447
-34.500000, 15.500000, 7.857857
-34.500000, 16.000000, 7.952493
-34.500000, 16.500000, 8.050375
-34.500000, 17.000000, 8.151521
-34.500000, 17.500000, 8.25595
-34.500000, 18.000000, 8.363682
-34.500000, 18.500000, 8.474737
-34.500000, 19.000000, 8.589135
-34.500000, 19.500000, 8.706895
-34.500000, 20.000000, 8.828039
-34.500000, 20.500000, 8.952588
-34.500000, 21.000000, 9.080562
-34.500000, 21.500000, 9.211984
-34.500000, 22.000000, 9.346875
-34.500000, 22.500000, 9.485257
-34.500000, 23.000000, 9.627153
-34.500000, 23.500000, 9.772587
-34.500000, 24.000000, 9.921581
-34.500000, 24.500000, 10.074159
-34.500000, 25.000000, 10.230346
-34.500000, 25.500000, 10.390166
-34.500000, 26.000000, 10.553645
-34.500000, 26.500000, 10.720808
-34.500000, 27.000000, 10.891682
-34.500000, 27.500000, 11.066292
-34.500000, 28.000000, 11.244668
-34.500000, 28.500000, 11.426836
-34.500000, 29.000000, 11.612825
-34.500000, 29.500000, 11.802665
-34.500000, 30.000000, 11.996386
-34.500000, 30.500000, 12.194018
-34.500000, 31.000000, 12.395592
-34.500000, 31.500000, 12.601142
-34.500000, 32.000000, 12.8107
-34.500000, 32.500000, 13.024299
-34.500000, 33.000000, 13.241976
-34.500000, 33.500000, 13.463765
-34.500000, 34.000000, 13.689704
-34.500000, 34.500000, 13.919831
-34.500000, 35.000000, 14.154183
-34.500000, 35.500000, 14.392802
-34.500000, 36.000000, 14.635728
-34.500000, 36.500000, 14.883004
-34.500000, 37.000000, 15.134674
-34.500000, 37.500000, 15.390781
-34.500000, 38.000000, 15.651373
-34.500000, 38.500000, 15.916498
-34.500000, 39.000000, 16.186204
-34.500000, 39.500000, 16.460542
-34.500000, 40.000000, 16.739566
-34.500000, 40.500000, 17.023328
-34.500000, 41.000000, 17.311885
-34.500000, 41.500000, 17.605294
-34.500000, 42.000000, 17.903614
-34.500000, 42.500000, 18.206912
-34.000000, -42.500000, 17.963808
-34.000000, -42.000000, 17.661281
-34.000000, -41.500000, 17.363716
-34.000000, -41.000000, 17.071054
-34.000000, -40.500000, 16.783236
-34.000000, -40.000000, 16.500205
-34.000000, -39.500000, 16.221905
-34.000000, -39.000000, 15.948285
-34.000000, -38.500000, 15.679292
-34.000000, -38.000000, 15.414876
-34.000000, -37.500000, 15.15499
-34.000000, -37.000000, 14.899585
-34.000000, -36.500000, 14.648617
-34.000000, -36.000000, 14.402042
-34.000000, -35.500000, 14.159816
-34.000000, -35.000000, 13.921898
-34.000000, -34.500000, 13.688247
-34.000000, -34.000000, 13.458824
-34.000000, -33.500000, 13.233592
-34.000000, -33.000000, 13.012511
-34.000000, -32.500000, 12.795547
-34.000000, -32.000000, 12.582665
-34.000000, -31.500000, 12.373828
-34.000000, -31.000000, 12.169005
-34.000000, -30.500000, 11.968162
-34.000000, -30.000000, 11.771268
-34.000000, -29.500000, 11.578291
-34.000000, -29.000000, 11.3892
-34.000000, -28.500000, 11.203967
-34.000000, -28.000000, 11.022561
-34.000000, -27.500000, 10.844955
-34.000000, -27.000000, 10.67112
-34.000000, -26.500000, 10.501028
-34.000000, -26.000000, 10.334653
-34.000000, -25.500000, 10.171969
-34.000000, -25.000000, 10.012949
-34.000000, -24.500000, 9.857567
-34.000000, -24.000000, 9.7058
-34.000000, -23.500000, 9.55762
-34.000000, -23.000000, 9.413006
-34.000000, -22.500000, 9.271931
-34.000000, -22.000000, 9.134373
-34.000000, -21.500000, 9.000308
-34.000000, -21.000000, 8.869712
-34.000000, -20.500000, 8.742563
-34.000000, -20.000000, 8.618838
-34.000000, -19.500000, 8.498515
-34.000000, -19.000000, 8.381571
-34.000000, -18.500000, 8.267985
-34.000000, -18.000000, 8.157734
-34.000000, -17.500000, 8.050797
-34.000000, -17.000000, 7.947153
-34.000000, -16.500000, 7.846781
-34.000000, -16.000000, 7.74966
-34.000000, -15.500000, 7.655769
-34.000000, -15.000000, 7.565089
-34.000000, -14.500000, 7.477598
-34.000000, -14.000000, 7.393277
-34.000000, -13.500000, 7.312108
-34.000000, -13.000000, 7.23407
-34.000000, -12.500000, 7.159145
-34.000000, -12.000000, 7.087315
-34.000000, -11.500000, 7.018561
-34.000000, -11.000000, 6.952867
-34.000000, -10.500000, 6.890215
-34.000000, -10.000000, 6.830589
-34.000000, -9.500000, 6.773973
-34.000000, -9.000000, 6.720352
-34.000000, -8.500000, 6.669711
-34.000000, -8.000000, 6.622035
-34.000000, -7.500000, 6.577313
-34.000000, -7.000000, 6.53553
-34.000000, -6.500000, 6.496676
-34.000000, -6.000000, 6.460739
-34.000000, -5.500000, 6.427709
-34.000000, -5.000000, 6.397577
-34.000000, -4.500000, 6.370334
-34.000000, -4.000000, 6.345972
-34.000000, -3.500000, 6.324486
-34.000000, -3.000000, 6.305868
-34.000000, -2.500000, 6.290115
-34.000000, -2.000000, 6.277223
-34.000000, -1.500000, 6.267187
-34.000000, -1.000000, 6.260008
-34.000000, -0.500000, 6.255682
-34.000000, 0.000000, 6.254211
-34.000000, 0.500000, 6.255595
-34.000000, 1.000000, 6.259835
-34.000000, 1.500000, 6.266935
-34.000000, 2.000000, 6.276898
-34.000000, 2.500000, 6.289729
-34.000000, 3.000000, 6.305431
-34.000000, 3.500000, 6.324012
-34.000000, 4.000000, 6.345479
-34.000000, 4.500000, 6.369839
-34.000000, 5.000000, 6.3971
-34.000000, 5.500000, 6.427272
-34.000000, 6.000000, 6.460364
-34.000000, 6.500000, 6.496387
-34.000000, 7.000000, 6.535352
-34.000000, 7.500000, 6.577271
-34.000000, 8.000000, 6.622156
-34.000000, 8.500000, 6.67002
-34.000000, 9.000000, 6.720876
-34.000000, 9.500000, 6.774739
-34.000000, 10.000000, 6.831622
-34.000000, 10.500000, 6.89154
-34.000000, 11.000000, 6.954509
-34.000000, 11.500000, 7.020544
-34.000000, 12.000000, 7.089661
-34.000000, 12.500000, 7.161876
-34.000000, 13.000000, 7.237207
-34.000000, 13.500000, 7.31567
-34.000000, 14.000000, 7.397282
-34.000000, 14.500000, 7.482061
-34.000000, 15.000000, 7.570025
-34.000000, 15.500000, 7.661192
-34.000000, 16.000000, 7.75558
-34.000000, 16.500000, 7.853209
-34.000000, 17.000000, 7.954096
-34.000000, 17.500000, 8.058262
-34.000000, 18.000000, 8.165725
-34.000000, 18.500000, 8.276505
-34.000000, 19.000000, 8.390623
-34.000000, 19.500000, 8.508099
-34.000000, 20.000000, 8.628952
-34.000000, 20.500000, 8.753205
-34.000000, 21.000000, 8.880877
-34.000000, 21.500000, 9.011991
-34.000000, 22.000000, 9.146569
-34.000000, 22.500000, 9.284631
-34.000000, 23.000000, 9.426202
-34.000000, 23.500000, 9.571302
-34.000000, 24.000000, 9.719957
-34.000000, 24.500000, 9.872189
-34.000000, 25.000000, 10.028022
-34.000000, 25.500000, 10.187482
-34.000000, 26.000000, 10.350592
-34.000000, 26.500000, 10.517378
-34.000000, 27.000000, 10.687867
-34.000000, 27.500000, 10.862085
-34.000000, 28.000000, 11.040058
-34.000000, 28.500000, 11.221815
-34.000000, 29.000000, 11.407384
-34.000000, 29.500000, 11.596794
-34.000000, 30.000000, 11.790075
-34.000000, 30.500000, 11.987256
-34.000000, 31.000000, 12.188369
-34.000000, 31.500000, 12.393447
-34.000000, 32.000000, 12.602521
-34.000000, 32.500000, 12.815625
-34.000000, 33.000000, 13.032794
-34.000000, 33.500000, 13.254063
-34.000000, 34.000000, 13.479469
-34.000000, 34.500000, 13.709048
-34.000000, 35.000000, 13.94284
-34.000000, 35.500000, 14.180884
-34.000000, 36.000000, 14.423221
-34.000000, 36.500000, 14.669892
-34.000000, 37.000000, 14.92094
-34.000000, 37.500000, 15.176411
-34.000000, 38.000000, 15.43635
-34.000000, 38.500000, 15.700803
-34.000000, 39.000000, 15.969821
-34.000000, 39.500000, 16.243452
-34.000000, 40.000000, 16.521749
-34.000000, 40.500000, 16.804766
-34.000000, 41.000000, 17.092557
-34.000000, 41.500000, 17.385179
-34.000000, 42.000000, 17.682692
-34.000000, 42.500000, 17.985158
-33.500000, -42.500000, 17.746547
-33.500000, -42.000000, 17.444815
-33.500000, -41.500000, 17.148024
-33.500000, -41.000000, 16.856114
-33.500000, -40.500000, 16.569027
-33.500000, -40.000000, 16.286708
-33.500000, -39.500000, 16.009101
-33.500000, -39.000000, 15.736155
-33.500000, -38.500000, 15.467818
-33.500000, -38.000000, 15.204041
-33.500000, -37.500000, 14.944777
-33.500000, -37.000000, 14.689978
-33.500000, -36.500000, 14.4396
-33.500000, -36.000000, 14.193599
-33.500000, -35.500000, 13.951933
-33.500000, -35.000000, 13.714561
-33.500000, -34.500000, 13.481442
-33.500000, -34.000000, 13.252538
-33.500000, -33.500000, 13.027811
-33.500000, -33.000000, 12.807224
-33.500000, -32.500000, 12.590741
-33.500000, -32.000000, 12.378327
-33.500000, -31.500000, 12.16995
-33.500000, -31.000000, 11.965574
-33.500000, -30.500000, 11.765169
-33.500000, -30.000000, 11.568702
-33.500000, -29.500000, 11.376142
-33.500000, -29.000000, 11.18746
