22.500000, -12.500000, 3.871183
22.500000, -12.000000, 3.797698
22.500000, -11.500000, 3.727272
22.500000, -11.000000, 3.659895
22.500000, -10.500000, 3.595562
22.500000, -10.000000, 3.534265
22.500000, -9.500000, 3.475997
22.500000, -9.000000, 3.420753
22.500000, -8.500000, 3.368525
22.500000, -8.000000, 3.319309
22.500000, -7.500000, 3.2731
22.500000, -7.000000, 3.229891
22.500000, -6.500000, 3.189679
22.500000, -6.000000, 3.152459
22.500000, -5.500000, 3.118228
22.500000, -5.000000, 3.086981
22.500000, -4.500000, 3.058716
22.500000, -4.000000, 3.033429
22.500000, -3.500000, 3.011117
22.500000, -3.000000, 2.991779
22.500000, -2.500000, 2.975412
22.500000, -2.000000, 2.962015
22.500000, -1.500000, 2.951586
22.500000, -1.000000, 2.944124
22.500000, -0.500000, 2.939628
22.500000, 0.000000, 2.938098
22.500000, 0.500000, 2.939533
22.500000, 1.000000, 2.943934
22.500000, 1.500000, 2.951302
22.500000, 2.000000, 2.961636
22.500000, 2.500000, 2.974938
22.500000, 3.000000, 2.99121
22.500000, 3.500000, 3.010453
22.500000, 4.000000, 3.03267
22.500000, 4.500000, 3.057861
22.500000, 5.000000, 3.086032
22.500000, 5.500000, 3.117183
22.500000, 6.000000, 3.151319
22.500000, 6.500000, 3.188443
22.500000, 7.000000, 3.228559
22.500000, 7.500000, 3.271672
22.500000, 8.000000, 3.317786
22.500000, 8.500000, 3.366906
22.500000, 9.000000, 3.419037
22.500000, 9.500000, 3.474185
22.500000, 10.000000, 3.532356
22.500000, 10.500000, 3.593556
22.500000, 11.000000, 3.657792
22.500000, 11.500000, 3.725071
22.500000, 12.000000, 3.7954
22.500000, 12.500000, 3.868787
22.500000, 13.000000, 3.94524
22.500000, 13.500000, 4.024768
22.500000, 14.000000, 4.107379
22.500000, 14.500000, 4.193082
22.500000, 15.000000, 4.281887
22.500000, 15.500000, 4.373805
22.500000, 16.000000, 4.468845
22.500000, 16.500000, 4.567018
22.500000, 17.000000, 4.668335
22.500000, 17.500000, 4.772809
22.500000, 18.000000, 4.88045
22.500000, 18.500000, 4.991272
22.500000, 19.000000, 5.105287
22.500000, 19.500000, 5.222508
22.500000, 20.000000, 5.34295
22.500000, 20.500000, 5.466627
22.500000, 21.000000, 5.593552
22.500000, 21.500000, 5.723743
22.500000, 22.000000, 5.857213
22.500000, 22.500000, 5.99398
22.500000, 23.000000, 6.13406
22.500000, 23.500000, 6.27747
22.500000, 24.000000, 6.424227
22.500000, 24.500000, 6.574351
22.500000, 25.000000, 6.72786
22.500000, 25.500000, 6.884774
22.500000, 26.000000, 7.045111
22.500000, 26.500000, 7.208894
22.500000, 27.000000, 7.376143
22.500000, 27.500000, 7.54688
22.500000, 28.000000, 7.721127
22.500000, 28.500000, 7.898908
22.500000, 29.000000, 8.080246
22.500000, 29.500000, 8.265167
22.500000, 30.000000, 8.453694
22.500000, 30.500000, 8.645854
22.500000, 31.000000, 8.841675
22.500000, 31.500000, 9.041182
22.500000, 32.000000, 9.244405
22.500000, 32.500000, 9.451373
22.500000, 33.000000, 9.662115
22.500000, 33.500000, 9.876663
22.500000, 34.000000, 10.095049
22.500000, 34.500000, 10.317304
22.500000, 35.000000, 10.543463
22.500000, 35.500000, 10.77356
22.500000, 36.000000, 11.007631
22.500000, 36.500000, 11.245712
22.500000, 37.000000, 11.487842
22.500000, 37.500000, 11.73406
22.500000, 38.000000, 11.984405
22.500000, 38.500000, 12.238918
22.500000, 39.000000, 12.497643
22.500000, 39.500000, 12.760624
22.500000, 40.000000, 13.027905
22.500000, 40.500000, 13.299533
22.500000, 41.000000, 13.575556
22.500000, 41.500000, 13.856025
22.500000, 42.000000, 14.140989
22.500000, 42.500000, 14.430502
23.000000, -42.500000, 14.595882
23.000000, -42.000000, 14.305603
23.000000, -41.500000, 14.019889
23.000000, -41.000000, 13.738686
23.000000, -40.500000, 13.461944
23.000000, -40.000000, 13.189613
23.000000, -39.500000, 12.921642
23.000000, -39.000000, 12.657987
23.000000, -38.500000, 12.398601
23.000000, -38.000000, 12.14344
23.000000, -37.500000, 11.89246
23.000000, -37.000000, 11.645621
23.000000, -36.500000, 11.402882
23.000000, -36.000000, 11.164204
23.000000, -35.500000, 10.929548
23.000000, -35.000000, 10.698877
23.000000, -34.500000, 10.472157
23.000000, -34.000000, 10.249351
23.000000, -33.500000, 10.030425
23.000000, -33.000000, 9.815348
23.000000, -32.500000, 9.604087
23.000000, -32.000000, 9.39661
23.000000, -31.500000, 9.192889
23.000000, -31.000000, 8.992892
23.000000, -30.500000, 8.796593
23.000000, -30.000000, 8.603962
23.000000, -29.500000, 8.414974
23.000000, -29.000000, 8.229602
23.000000, -28.500000, 8.047821
23.000000, -28.000000, 7.869606
23.000000, -27.500000, 7.694933
23.000000, -27.000000, 7.523779
23.000000, -26.500000, 7.35612
23.000000, -26.000000, 7.191937
23.000000, -25.500000, 7.031206
23.000000, -25.000000, 6.873907
23.000000, -24.500000, 6.72002
23.000000, -24.000000, 6.569526
23.000000, -23.500000, 6.422406
23.000000, -23.000000, 6.278641
23.000000, -22.500000, 6.138213
23.000000, -22.000000, 6.001105
23.000000, -21.500000, 5.8673
23.000000, -21.000000, 5.736782
23.000000, -20.500000, 5.609536
23.000000, -20.000000, 5.485546
23.000000, -19.500000, 5.364796
23.000000, -19.000000, 5.247274
23.000000, -18.500000, 5.132964
23.000000, -18.000000, 5.021854
23.000000, -17.500000, 4.913931
23.000000, -17.000000, 4.809182
23.000000, -16.500000, 4.707595
23.000000, -16.000000, 4.609158
23.000000, -15.500000, 4.51386
23.000000, -15.000000, 4.421691
23.000000, -14.500000, 4.33264
23.000000, -14.000000, 4.246696
23.000000, -13.500000, 4.16385
23.000000, -13.000000, 4.084094
23.000000, -12.500000, 4.007417
23.000000, -12.000000, 3.933812
23.000000, -11.500000, 3.86327
23.000000, -11.000000, 3.795784
23.000000, -10.500000, 3.731346
23.000000, -10.000000, 3.66995
23.000000, -9.500000, 3.611587
23.000000, -9.000000, 3.556253
23.000000, -8.500000, 3.503941
23.000000, -8.000000, 3.454646
23.000000, -7.500000, 3.408361
23.000000, -7.000000, 3.365083
23.000000, -6.500000, 3.324806
23.000000, -6.000000, 3.287527
23.000000, -5.500000, 3.25324
23.000000, -5.000000, 3.221943
23.000000, -4.500000, 3.193632
23.000000, -4.000000, 3.168305
23.000000, -3.500000, 3.145958
23.000000, -3.000000, 3.126589
23.000000, -2.500000, 3.110196
23.000000, -2.000000, 3.096777
23.000000, -1.500000, 3.086331
23.000000, -1.000000, 3.078857
23.000000, -0.500000, 3.074354
23.000000, 0.000000, 3.072821
23.000000, 0.500000, 3.074259
23.000000, 1.000000, 3.078667
23.000000, 1.500000, 3.086046
23.000000, 2.000000, 3.096397
23.000000, 2.500000, 3.109721
23.000000, 3.000000, 3.126019
23.000000, 3.500000, 3.145293
23.000000, 4.000000, 3.167545
23.000000, 4.500000, 3.192777
23.000000, 5.000000, 3.220992
23.000000, 5.500000, 3.252194
23.000000, 6.000000, 3.286385
23.000000, 6.500000, 3.323568
23.000000, 7.000000, 3.363749
23.000000, 7.500000, 3.406932
23.000000, 8.000000, 3.45312
23.000000, 8.500000, 3.502319
23.000000, 9.000000, 3.554535
23.000000, 9.500000, 3.609772
23.000000, 10.000000, 3.668038
23.000000, 10.500000, 3.729337
23.000000, 11.000000, 3.793678
23.000000, 11.500000, 3.861066
23.000000, 12.000000, 3.93151
23.000000, 12.500000, 4.005017
23.000000, 13.000000, 4.081595
23.000000, 13.500000, 4.161254
23.000000, 14.000000, 4.244
23.000000, 14.500000, 4.329845
23.000000, 15.000000, 4.418797
23.000000, 15.500000, 4.510866
23.000000, 16.000000, 4.606064
23.000000, 16.500000, 4.7044
23.000000, 17.000000, 4.805886
23.000000, 17.500000, 4.910534
23.000000, 18.000000, 5.018356
23.000000, 18.500000, 5.129364
23.000000, 19.000000, 5.243571
23.000000, 19.500000, 5.36099
23.000000, 20.000000, 5.481636
23.000000, 20.500000, 5.605523
23.000000, 21.000000, 5.732665
23.000000, 21.500000, 5.863078
23.000000, 22.000000, 5.996777
23.000000, 22.500000, 6.133779
23.000000, 23.000000, 6.274101
23.000000, 23.500000, 6.417759
23.000000, 24.000000, 6.564772
23.000000, 24.500000, 6.715158
23.000000, 25.000000, 6.868936
23.000000, 25.500000, 7.026126
23.000000, 26.000000, 7.186746
23.000000, 26.500000, 7.350819
23.000000, 27.000000, 7.518366
23.000000, 27.500000, 7.689408
23.000000, 28.000000, 7.863968
23.000000, 28.500000, 8.04207
23.000000, 29.000000, 8.223737
23.000000, 29.500000, 8.408994
23.000000, 30.000000, 8.597866
23.000000, 30.500000, 8.790379
23.000000, 31.000000, 8.986561
23.000000, 31.500000, 9.186439
23.000000, 32.000000, 9.390041
23.000000, 32.500000, 9.597397
23.000000, 33.000000, 9.808537
23.000000, 33.500000, 10.023492
23.000000, 34.000000, 10.242294
23.000000, 34.500000, 10.464975
23.000000, 35.000000, 10.69157
23.000000, 35.500000, 10.922114
23.000000, 36.000000, 11.156642
23.000000, 36.500000, 11.395191
23.000000, 37.000000, 11.6378
23.000000, 37.500000, 11.884507
23.000000, 38.000000, 12.135354
23.000000, 38.500000, 12.390381
23.000000, 39.000000, 12.649631
23.000000, 39.500000, 12.913149
23.000000, 40.000000, 13.180981
23.000000, 40.500000, 13.453173
23.000000, 41.000000, 13.729773
23.000000, 41.500000, 14.010832
23.000000, 42.000000, 14.296401
23.000000, 42.500000, 14.586534
23.500000, -42.500000, 14.755718
23.500000, -42.000000, 14.464802
23.500000, -41.500000, 14.178465
23.500000, -41.000000, 13.896655
23.500000, -40.500000, 13.619319
23.500000, -40.000000, 13.346407
23.500000, -39.500000, 13.07787
23.500000, -39.000000, 12.813661
23.500000, -38.500000, 12.553735
23.500000, -38.000000, 12.298045
23.500000, -37.500000, 12.04655
23.500000, -37.000000, 11.799206
23.500000, -36.500000, 11.555975
23.500000, -36.000000, 11.316815
23.500000, -35.500000, 11.081689
23.500000, -35.000000, 10.850559
23.500000, -34.500000, 10.623389
23.500000, -34.000000, 10.400145
23.500000, -33.500000, 10.180791
23.500000, -33.000000, 9.965295
23.500000, -32.500000, 9.753625
23.500000, -32.000000, 9.54575
23.500000, -31.500000, 9.341638
23.500000, -31.000000, 9.14126
23.500000, -30.500000, 8.944589
23.500000, -30.000000, 8.751595
23.500000, -29.500000, 8.562252
23.500000, -29.000000, 8.376534
23.500000, -28.500000, 8.194415
23.500000, -28.000000, 8.01587
23.500000, -27.500000, 7.840875
23.500000, -27.000000, 7.669407
23.500000, -26.500000, 7.501443
23.500000, -26.000000, 7.336961
23.500000, -25.500000, 7.175939
23.500000, -25.000000, 7.018356
23.500000, -24.500000, 6.864193
23.500000, -24.000000, 6.713429
23.500000, -23.500000, 6.566047
23.500000, -23.000000, 6.422026
23.500000, -22.500000, 6.281349
23.500000, -22.000000, 6.143999
23.500000, -21.500000, 6.009959
23.500000, -21.000000, 5.879213
23.500000, -20.500000, 5.751744
23.500000, -20.000000, 5.627537
23.500000, -19.500000, 5.506578
23.500000, -19.000000, 5.388852
23.500000, -18.500000, 5.274345
23.500000, -18.000000, 5.163044
23.500000, -17.500000, 5.054935
23.500000, -17.000000, 4.950007
23.500000, -16.500000, 4.848246
23.500000, -16.000000, 4.749641
23.500000, -15.500000, 4.654181
23.500000, -15.000000, 4.561856
23.500000, -14.500000, 4.472653
23.500000, -14.000000, 4.386564
23.500000, -13.500000, 4.303579
23.500000, -13.000000, 4.223688
23.500000, -12.500000, 4.146883
23.500000, -12.000000, 4.073154
23.500000, -11.500000, 4.002495
23.500000, -11.000000, 3.934896
23.500000, -10.500000, 3.87035
23.500000, -10.000000, 3.808851
23.500000, -9.500000, 3.750392
23.500000, -9.000000, 3.694966
23.500000, -8.500000, 3.642567
23.500000, -8.000000, 3.59319
23.500000, -7.500000, 3.546829
23.500000, -7.000000, 3.503479
23.500000, -6.500000, 3.463136
23.500000, -6.000000, 3.425794
23.500000, -5.500000, 3.391451
23.500000, -5.000000, 3.360103
23.500000, -4.500000, 3.331746
23.500000, -4.000000, 3.306376
23.500000, -3.500000, 3.283992
23.500000, -3.000000, 3.264592
23.500000, -2.500000, 3.248172
23.500000, -2.000000, 3.234731
23.500000, -1.500000, 3.224268
23.500000, -1.000000, 3.216781
23.500000, -0.500000, 3.212271
23.500000, 0.000000, 3.210736
23.500000, 0.500000, 3.212176
23.500000, 1.000000, 3.216591
23.500000, 1.500000, 3.223982
23.500000, 2.000000, 3.23435
23.500000, 2.500000, 3.247696
23.500000, 3.000000, 3.264021
23.500000, 3.500000, 3.283326
23.500000, 4.000000, 3.305615
23.500000, 4.500000, 3.330889
23.500000, 5.000000, 3.35915
23.500000, 5.500000, 3.390403
23.500000, 6.000000, 3.42465
23.500000, 6.500000, 3.461896
23.500000, 7.000000, 3.502143
23.500000, 7.500000, 3.545397
23.500000, 8.000000, 3.591662
23.500000, 8.500000, 3.640942
23.500000, 9.000000, 3.693244
23.500000, 9.500000, 3.748574
23.500000, 10.000000, 3.806936
23.500000, 10.500000, 3.868338
23.500000, 11.000000, 3.932786
23.500000, 11.500000, 4.000287
23.500000, 12.000000, 4.070849
23.500000, 12.500000, 4.144479
23.500000, 13.000000, 4.221186
23.500000, 13.500000, 4.300978
23.500000, 14.000000, 4.383864
23.500000, 14.500000, 4.469854
23.500000, 15.000000, 4.558956
23.500000, 15.500000, 4.651182
23.500000, 16.000000, 4.746542
23.500000, 16.500000, 4.845046
23.500000, 17.000000, 4.946705
23.500000, 17.500000, 5.051533
23.500000, 18.000000, 5.159539
23.500000, 18.500000, 5.270738
23.500000, 19.000000, 5.385143
23.500000, 19.500000, 5.502766
23.500000, 20.000000, 5.623621
23.500000, 20.500000, 5.747724
23.500000, 21.000000, 5.875088
23.500000, 21.500000, 6.005729
23.500000, 22.000000, 6.139664
23.500000, 22.500000, 6.276908
23.500000, 23.000000, 6.417478
23.500000, 23.500000, 6.561392
23.500000, 24.000000, 6.708667
23.500000, 24.500000, 6.859322
23.500000, 25.000000, 7.013376
23.500000, 25.500000, 7.170849
23.500000, 26.000000, 7.331761
23.500000, 26.500000, 7.496132
23.500000, 27.000000, 7.663985
23.500000, 27.500000, 7.835341
23.500000, 28.000000, 8.010223
23.500000, 28.500000, 8.188654
23.500000, 29.000000, 8.370658
23.500000, 29.500000, 8.556261
23.500000, 30.000000, 8.745487
23.500000, 30.500000, 8.938364
23.500000, 31.000000, 9.134918
23.500000, 31.500000, 9.335176
23.500000, 32.000000, 9.539168
23.500000, 32.500000, 9.746923
23.500000, 33.000000, 9.958471
23.500000, 33.500000, 10.173844
23.500000, 34.000000, 10.393074
23.500000, 34.500000, 10.616194
23.500000, 35.000000, 10.843238
23.500000, 35.500000, 11.07424
23.500000, 36.000000, 11.309238
23.500000, 36.500000, 11.548268
23.500000, 37.000000, 11.791369
23.500000, 37.500000, 12.03858
23.500000, 38.000000, 12.289942
23.500000, 38.500000, 12.545497
23.500000, 39.000000, 12.805288
23.500000, 39.500000, 13.069359
23.500000, 40.000000, 13.337757
23.500000, 40.500000, 13.610528
23.500000, 41.000000, 13.887722
23.500000, 41.500000, 14.169388
23.500000, 42.000000, 14.45558
23.500000, 42.500000, 14.746349
24.000000, -42.500000, 14.919365
24.000000, -42.000000, 14.627792
24.000000, -41.500000, 14.340815
24.000000, -41.000000, 14.05838
24.000000, -40.500000, 13.780433
24.000000, -40.000000, 13.506925
24.000000, -39.500000, 13.237806
24.000000, -39.000000, 12.973028
24.000000, -38.500000, 12.712545
24.000000, -38.000000, 12.456313
24.000000, -37.500000, 12.204287
24.000000, -37.000000, 11.956426
24.000000, -36.500000, 11.712688
24.000000, -36.000000, 11.473033
24.000000, -35.500000, 11.237424
24.000000, -35.000000, 11.005822
24.000000, -34.500000, 10.778191
24.000000, -34.000000, 10.554496
24.000000, -33.500000, 10.334702
24.000000, -33.000000, 10.118776
24.000000, -32.500000, 9.906686
24.000000, -32.000000, 9.6984
24.000000, -31.500000, 9.493887
24.000000, -31.000000, 9.293118
24.000000, -30.500000, 9.096065
24.000000, -30.000000, 8.902698
24.000000, -29.500000, 8.712991
24.000000, -29.000000, 8.526917
24.000000, -28.500000, 8.344451
24.000000, -28.000000, 8.165567
24.000000, -27.500000, 7.990242
24.000000, -27.000000, 7.818451
24.000000, -26.500000, 7.650172
24.000000, -26.000000, 7.485383
24.000000, -25.500000, 7.324062
24.000000, -25.000000, 7.166188
24.000000, -24.500000, 7.011741
24.000000, -24.000000, 6.8607
24.000000, -23.500000, 6.713048
24.000000, -23.000000, 6.568765
24.000000, -22.500000, 6.427832
24.000000, -22.000000, 6.290234
24.000000, -21.500000, 6.155952
24.000000, -21.000000, 6.024971
24.000000, -20.500000, 5.897273
24.000000, -20.000000, 5.772845
24.000000, -19.500000, 5.651671
24.000000, -19.000000, 5.533735
24.000000, -18.500000, 5.419026
24.000000, -18.000000, 5.307528
24.000000, -17.500000, 5.199229
24.000000, -17.000000, 5.094116
24.000000, -16.500000, 4.992177
24.000000, -16.000000, 4.8934
24.000000, -15.500000, 4.797774
24.000000, -15.000000, 4.705287
24.000000, -14.500000, 4.61593
24.000000, -14.000000, 4.529692
24.000000, -13.500000, 4.446563
24.000000, -13.000000, 4.366535
24.000000, -12.500000, 4.289597
24.000000, -12.000000, 4.215742
24.000000, -11.500000, 4.144961
24.000000, -11.000000, 4.077246
24.000000, -10.500000, 4.01259
24.000000, -10.000000, 3.950986
24.000000, -9.500000, 3.892427
24.000000, -9.000000, 3.836907
24.000000, -8.500000, 3.784419
24.000000, -8.000000, 3.734958
24.000000, -7.500000, 3.688518
24.000000, -7.000000, 3.645095
24.000000, -6.500000, 3.604683
24.000000, -6.000000, 3.567279
24.000000, -5.500000, 3.532878
24.000000, -5.000000, 3.501476
24.000000, -4.500000, 3.473071
24.000000, -4.000000, 3.447659
24.000000, -3.500000, 3.425237
24.000000, -3.000000, 3.405804
24.000000, -2.500000, 3.389356
24.000000, -2.000000, 3.375893
24.000000, -1.500000, 3.365412
24.000000, -1.000000, 3.357913
24.000000, -0.500000, 3.353395
24.000000, 0.000000, 3.351857
24.000000, 0.500000, 3.3533
24.000000, 1.000000, 3.357723
24.000000, 1.500000, 3.365126
24.000000, 2.000000, 3.375512
24.000000, 2.500000, 3.38888
24.000000, 3.000000, 3.405232
24.000000, 3.500000, 3.42457
24.000000, 4.000000, 3.446896
24.000000, 4.500000, 3.472212
24.000000, 5.000000, 3.500522
24.000000, 5.500000, 3.531828
24.000000, 6.000000, 3.566133
24.000000, 6.500000, 3.603441
24.000000, 7.000000, 3.643756
24.000000, 7.500000, 3.687083
24.000000, 8.000000, 3.733427
24.000000, 8.500000, 3.782791
24.000000, 9.000000, 3.835182
24.000000, 9.500000, 3.890606
24.000000, 10.000000, 3.949068
24.000000, 10.500000, 4.010574
24.000000, 11.000000, 4.075132
24.000000, 11.500000, 4.142749
24.000000, 12.000000, 4.213432
24.000000, 12.500000, 4.287189
24.000000, 13.000000, 4.364028
24.000000, 13.500000, 4.443958
24.000000, 14.000000, 4.526987
24.000000, 14.500000, 4.613126
24.000000, 15.000000, 4.702383
24.000000, 15.500000, 4.794769
24.000000, 16.000000, 4.890295
24.000000, 16.500000, 4.988971
24.000000, 17.000000, 5.090809
24.000000, 17.500000, 5.19582
24.000000, 18.000000, 5.304017
24.000000, 18.500000, 5.415413
24.000000, 19.000000, 5.530019
24.000000, 19.500000, 5.647851
24.000000, 20.000000, 5.768922
24.000000, 20.500000, 5.893246
24.000000, 21.000000, 6.020839
24.000000, 21.500000, 6.151715
24.000000, 22.000000, 6.285891
24.000000, 22.500000, 6.423383
24.000000, 23.000000, 6.564209
24.000000, 23.500000, 6.708384
24.000000, 24.000000, 6.855929
24.000000, 24.500000, 7.006861
24.000000, 25.000000, 7.161199
24.000000, 25.500000, 7.318963
24.000000, 26.000000, 7.480174
24.000000, 26.500000, 7.644852
24.000000, 27.000000, 7.813018
24.000000, 27.500000, 7.984696
24.000000, 28.000000, 8.159909
24.000000, 28.500000, 8.338678
24.000000, 29.000000, 8.521029
24.000000, 29.500000, 8.706988
24.000000, 30.000000, 8.896578
24.000000, 30.500000, 9.089828
24.000000, 31.000000, 9.286763
24.000000, 31.500000, 9.487413
24.000000, 32.000000, 9.691805
24.000000, 32.500000, 9.89997
24.000000, 33.000000, 10.111938
24.000000, 33.500000, 10.327741
24.000000, 34.000000, 10.547411
24.000000, 34.500000, 10.770981
24.000000, 35.000000, 10.998485
24.000000, 35.500000, 11.22996
24.000000, 36.000000, 11.465441
24.000000, 36.500000, 11.704965
24.000000, 37.000000, 11.948572
24.000000, 37.500000, 12.196301
24.000000, 38.000000, 12.448193
24.000000, 38.500000, 12.704291
24.000000, 39.000000, 12.964637
24.000000, 39.500000, 13.229277
24.000000, 40.000000, 13.498256
24.000000, 40.500000, 13.771623
24.000000, 41.000000, 14.049427
24.000000, 41.500000, 14.331718
24.000000, 42.000000, 14.618549
24.000000, 42.500000, 14.909974
24.500000, -42.500000, 15.086847
24.500000, -42.000000, 14.7946
24.500000, -41.500000, 14.506965
24.500000, -41.000000, 14.223887
24.500000, -40.500000, 13.945313
24.500000, -40.000000, 13.671192
24.500000, -39.500000, 13.401474
24.500000, -39.000000, 13.136111
24.500000, -38.500000, 12.875057
24.500000, -38.000000, 12.618267
24.500000, -37.500000, 12.365696
24.500000, -37.000000, 12.117302
24.500000, -36.500000, 11.873043
24.500000, -36.000000, 11.632881
24.500000, -35.500000, 11.396775
24.500000, -35.000000, 11.164688
24.500000, -34.500000, 10.936583
24.500000, -34.000000, 10.712425
24.500000, -33.500000, 10.492178
24.500000, -33.000000, 10.275811
24.500000, -32.500000, 10.063289
24.500000, -32.000000, 9.854581
24.500000, -31.500000, 9.649657
24.500000, -31.000000, 9.448486
24.500000, -30.500000, 9.25104
24.500000, -30.000000, 9.05729
24.500000, -29.500000, 8.867209
24.500000, -29.000000, 8.68077
24.500000, -28.500000, 8.497947
24.500000, -28.000000, 8.318715
24.500000, -27.500000, 8.14305
24.500000, -27.000000, 7.970928
24.500000, -26.500000, 7.802327
24.500000, -26.000000, 7.637223
24.500000, -25.500000, 7.475594
24.500000, -25.000000, 7.317421
24.500000, -24.500000, 7.162682
24.500000, -24.000000, 7.011358
24.500000, -23.500000, 6.863428
24.500000, -23.000000, 6.718876
24.500000, -22.500000, 6.577681
24.500000, -22.000000, 6.439828
24.500000, -21.500000, 6.305298
24.500000, -21.000000, 6.174075
24.500000, -20.500000, 6.046143
24.500000, -20.000000, 5.921487
24.500000, -19.500000, 5.800091
24.500000, -19.000000, 5.681941
24.500000, -18.500000, 5.567024
24.500000, -18.000000, 5.455324
24.500000, -17.500000, 5.346829
24.500000, -17.000000, 5.241527
24.500000, -16.500000, 5.139405
24.500000, -16.000000, 5.040451
24.500000, -15.500000, 4.944654
24.500000, -15.000000, 4.852003
24.500000, -14.500000, 4.762487
24.500000, -14.000000, 4.676096
24.500000, -13.500000, 4.59282
24.500000, -13.000000, 4.51265
24.500000, -12.500000, 4.435576
24.500000, -12.000000, 4.361591
24.500000, -11.500000, 4.290685
24.500000, -11.000000, 4.222852
24.500000, -10.500000, 4.158083
24.500000, -10.000000, 4.096371
24.500000, -9.500000, 4.037709
24.500000, -9.000000, 3.982092
24.500000, -8.500000, 3.929513
24.500000, -8.000000, 3.879966
24.500000, -7.500000, 3.833445
24.500000, -7.000000, 3.789946
24.500000, -6.500000, 3.749465
24.500000, -6.000000, 3.711995
24.500000, -5.500000, 3.677535
24.500000, -5.000000, 3.646079
24.500000, -4.500000, 3.617625
24.500000, -4.000000, 3.592169
24.500000, -3.500000, 3.569708
24.500000, -3.000000, 3.550241
24.500000, -2.500000, 3.533765
24.500000, -2.000000, 3.520279
24.500000, -1.500000, 3.50978
24.500000, -1.000000, 3.502268
24.500000, -0.500000, 3.497742
24.500000, 0.000000, 3.496202
24.500000, 0.500000, 3.497647
24.500000, 1.000000, 3.502077
24.500000, 1.500000, 3.509494
24.500000, 2.000000, 3.519897
24.500000, 2.500000, 3.533288
24.500000, 3.000000, 3.549668
24.500000, 3.500000, 3.56904
24.500000, 4.000000, 3.591404
24.500000, 4.500000, 3.616765
24.500000, 5.000000, 3.645123
24.500000, 5.500000, 3.676483
24.500000, 6.000000, 3.710847
24.500000, 6.500000, 3.74822
24.500000, 7.000000, 3.788606
24.500000, 7.500000, 3.832008
24.500000, 8.000000, 3.878432
24.500000, 8.500000, 3.927882
24.500000, 9.000000, 3.980365
24.500000, 9.500000, 4.035885
24.500000, 10.000000, 4.094449
24.500000, 10.500000, 4.156063
24.500000, 11.000000, 4.220734
24.500000, 11.500000, 4.28847
24.500000, 12.000000, 4.359277
24.500000, 12.500000, 4.433164
24.500000, 13.000000, 4.510138
24.500000, 13.500000, 4.590209
24.500000, 14.000000, 4.673386
24.500000, 14.500000, 4.759677
24.500000, 15.000000, 4.849094
24.500000, 15.500000, 4.941644
24.500000, 16.000000, 5.037341
24.500000, 16.500000, 5.136194
24.500000, 17.000000, 5.238214
24.500000, 17.500000, 5.343415
24.500000, 18.000000, 5.451807
24.500000, 18.500000, 5.563404
24.500000, 19.000000, 5.678219
24.500000, 19.500000, 5.796265
24.500000, 20.000000, 5.917557
24.500000, 20.500000, 6.042108
24.500000, 21.000000, 6.169935
24.500000, 21.500000, 6.301053
24.500000, 22.000000, 6.435477
24.500000, 22.500000, 6.573224
24.500000, 23.000000, 6.714311
24.500000, 23.500000, 6.858756
24.500000, 24.000000, 7.006577
24.500000, 24.500000, 7.157793
24.500000, 25.000000, 7.312423
24.500000, 25.500000, 7.470486
24.500000, 26.000000, 7.632003
24.500000, 26.500000, 7.796996
24.500000, 27.000000, 7.965486
24.500000, 27.500000, 8.137495
24.500000, 28.000000, 8.313046
24.500000, 28.500000, 8.492163
24.500000, 29.000000, 8.674871
24.500000, 29.500000, 8.861194
24.500000, 30.000000, 9.051158
24.500000, 30.500000, 9.244791
24.500000, 31.000000, 9.442118
24.500000, 31.500000, 9.64317
24.500000, 32.000000, 9.847973
24.500000, 32.500000, 10.05656
24.500000, 33.000000, 10.268959
24.500000, 33.500000, 10.485203
24.500000, 34.000000, 10.705325
24.500000, 34.500000, 10.929358
24.500000, 35.000000, 11.157336
24.500000, 35.500000, 11.389295
24.500000, 36.000000, 11.625272
24.500000, 36.500000, 11.865305
24.500000, 37.000000, 12.109431
24.500000, 37.500000, 12.357693
24.500000, 38.000000, 12.610129
24.500000, 38.500000, 12.866784
24.500000, 39.000000, 13.127701
24.500000, 39.500000, 13.392926
24.500000, 40.000000, 13.662503
24.500000, 40.500000, 13.936483
24.500000, 41.000000, 14.214914
24.500000, 41.500000, 14.497848
24.500000, 42.000000, 14.785336
24.500000, 42.500000, 15.077434
25.000000, -42.500000, 15.258192
25.000000, -42.000000, 14.965252
25.000000, -41.500000, 14.676941
25.000000, -41.000000, 14.393202
25.000000, -40.500000, 14.113983
25.000000, -40.000000, 13.839232
25.000000, -39.500000, 13.568899
25.000000, -39.000000, 13.302935
25.000000, -38.500000, 13.041294
25.000000, -38.000000, 12.78393
25.000000, -37.500000, 12.530799
25.000000, -37.000000, 12.281858
25.000000, -36.500000, 12.037065
25.000000, -36.000000, 11.796381
25.000000, -35.500000, 11.559764
25.000000, -35.000000, 11.327179
25.000000, -34.500000, 11.098587
25.000000, -34.000000, 10.873954
25.000000, -33.500000, 10.653243
25.000000, -33.000000, 10.436422
25.000000, -32.500000, 10.223457
25.000000, -32.000000, 10.014316
25.000000, -31.500000, 9.808969
25.000000, -31.000000, 9.607385
25.000000, -30.500000, 9.409536
25.000000, -30.000000, 9.215392
25.000000, -29.500000, 9.024927
25.000000, -29.000000, 8.838113
25.000000, -28.500000, 8.654924
25.000000, -28.000000, 8.475335
25.000000, -27.500000, 8.299322
25.000000, -27.000000, 8.12686
25.000000, -26.500000, 7.957927
25.000000, -26.000000, 7.792499
25.000000, -25.500000, 7.630556
25.000000, -25.000000, 7.472075
25.000000, -24.500000, 7.317037
25.000000, -24.000000, 7.16542
25.000000, -23.500000, 7.017207
25.000000, -23.000000, 6.872378
25.000000, -22.500000, 6.730914
25.000000, -22.000000, 6.592799
25.000000, -21.500000, 6.458014
25.000000, -21.000000, 6.326543
25.000000, -20.500000, 6.198371
25.000000, -20.000000, 6.073481
25.000000, -19.500000, 5.951858
25.000000, -19.000000, 5.833488
25.000000, -18.500000, 5.718357
25.000000, -18.000000, 5.60645
25.000000, -17.500000, 5.497755
25.000000, -17.000000, 5.392259
25.000000, -16.500000, 5.289949
25.000000, -16.000000, 5.190813
25.000000, -15.500000, 5.094841
25.000000, -15.000000, 5.00202
25.000000, -14.500000, 4.912341
25.000000, -14.000000, 4.825793
25.000000, -13.500000, 4.742366
25.000000, -13.000000, 4.66205
25.000000, -12.500000, 4.584838
25.000000, -12.000000, 4.510719
25.000000, -11.500000, 4.439686
25.000000, -11.000000, 4.37173
25.000000, -10.500000, 4.306845
25.000000, -10.000000, 4.245022
25.000000, -9.500000, 4.186256
25.000000, -9.000000, 4.130539
25.000000, -8.500000, 4.077866
25.000000, -8.000000, 4.02823
25.000000, -7.500000, 3.981627
25.000000, -7.000000, 3.938051
25.000000, -6.500000, 3.897497
25.000000, -6.000000, 3.859962
25.000000, -5.500000, 3.82544
25.000000, -5.000000, 3.793928
25.000000, -4.500000, 3.765424
25.000000, -4.000000, 3.739923
25.000000, -3.500000, 3.717422
25.000000, -3.000000, 3.697921
25.000000, -2.500000, 3.681416
25.000000, -2.000000, 3.667905
25.000000, -1.500000, 3.657388
25.000000, -1.000000, 3.649863
25.000000, -0.500000, 3.645329
25.000000, 0.000000, 3.643786
25.000000, 0.500000, 3.645233
25.000000, 1.000000, 3.649672
25.000000, 1.500000, 3.657101
25.000000, 2.000000, 3.667523
25.000000, 2.500000, 3.680938
25.000000, 3.000000, 3.697347
25.000000, 3.500000, 3.716753
25.000000, 4.000000, 3.739157
25.000000, 4.500000, 3.764562
25.000000, 5.000000, 3.792971
25.000000, 5.500000, 3.824386
25.000000, 6.000000, 3.858812
25.000000, 6.500000, 3.896251
25.000000, 7.000000, 3.936708
25.000000, 7.500000, 3.980188
25.000000, 8.000000, 4.026694
25.000000, 8.500000, 4.076233
25.000000, 9.000000, 4.128809
25.000000, 9.500000, 4.184428
25.000000, 10.000000, 4.243097
25.000000, 10.500000, 4.304822
25.000000, 11.000000, 4.369609
25.000000, 11.500000, 4.437466
25.000000, 12.000000, 4.508401
25.000000, 12.500000, 4.582421
25.000000, 13.000000, 4.659535
25.000000, 13.500000, 4.739751
25.000000, 14.000000, 4.823078
25.000000, 14.500000, 4.909527
25.000000, 15.000000, 4.999106
25.000000, 15.500000, 5.091826
25.000000, 16.000000, 5.187697
25.000000, 16.500000, 5.286731
25.000000, 17.000000, 5.38894
25.000000, 17.500000, 5.494334
25.000000, 18.000000, 5.602927
25.000000, 18.500000, 5.71473
25.000000, 19.000000, 5.829759
25.000000, 19.500000, 5.948025
25.000000, 20.000000, 6.069543
25.000000, 20.500000, 6.194329
25.000000, 21.000000, 6.322396
25.000000, 21.500000, 6.453761
25.000000, 22.000000, 6.588439
25.000000, 22.500000, 6.726448
25.000000, 23.000000, 6.867805
25.000000, 23.500000, 7.012526
25.000000, 24.000000, 7.160631
25.000000, 24.500000, 7.312138
25.000000, 25.000000, 7.467067
25.000000, 25.500000, 7.625437
25.000000, 26.000000, 7.787269
25.000000, 26.500000, 7.952585
25.000000, 27.000000, 8.121406
25.000000, 27.500000, 8.293755
25.000000, 28.000000, 8.469654
25.000000, 28.500000, 8.649129
25.000000, 29.000000, 8.832202
25.000000, 29.500000, 9.0189
25.000000, 30.000000, 9.209248
25.000000, 30.500000, 9.403274
25.000000, 31.000000, 9.601005
25.000000, 31.500000, 9.802468
25.000000, 32.000000, 10.007695
25.000000, 32.500000, 10.216713
25.000000, 33.000000, 10.429556
25.000000, 33.500000, 10.646253
25.000000, 34.000000, 10.866839
25.000000, 34.500000, 11.091347
25.000000, 35.000000, 11.319812
25.000000, 35.500000, 11.552269
25.000000, 36.000000, 11.788756
25.000000, 36.500000, 12.02931
25.000000, 37.000000, 12.273971
25.000000, 37.500000, 12.522779
25.000000, 38.000000, 12.775775
25.000000, 38.500000, 13.033003
25.000000, 39.000000, 13.294506
25.000000, 39.500000, 13.560331
25.000000, 40.000000, 13.830524
25.000000, 40.500000, 14.105133
25.000000, 41.000000, 14.384208
25.000000, 41.500000, 14.667802
25.000000, 42.000000, 14.955966
25.000000, 42.500000, 15.248757
25.500000, -42.500000, 15.433427
25.500000, -42.000000, 15.139776
25.500000, -41.500000, 14.850769
25.500000, -41.000000, 14.566351
25.500000, -40.500000, 14.28647
25.500000, -40.000000, 14.011071
25.500000, -39.500000, 13.740106
25.500000, -39.000000, 13.473525
25.500000, -38.500000, 13.211282
25.500000, -38.000000, 12.953329
25.500000, -37.500000, 12.699623
25.500000, -37.000000, 12.450119
25.500000, -36.500000, 12.204778
25.500000, -36.000000, 11.963557
25.500000, -35.500000, 11.726417
25.500000, -35.000000, 11.49332
25.500000, -34.500000, 11.264228
25.500000, -34.000000, 11.039106
25.500000, -33.500000, 10.817918
25.500000, -33.000000, 10.600631
25.500000, -32.500000, 10.387211
25.500000, -32.000000, 10.177626
25.500000, -31.500000, 9.971845
25.500000, -31.000000, 9.769838
25.500000, -30.500000, 9.571574
25.500000, -30.000000, 9.377027
25.500000, -29.500000, 9.186167
25.500000, -29.000000, 8.998968
25.500000, -28.500000, 8.815403
25.500000, -28.000000, 8.635448
25.500000, -27.500000, 8.459076
25.500000, -27.000000, 8.286266
25.500000, -26.500000, 8.116992
25.500000, -26.000000, 7.951233
25.500000, -25.500000, 7.788966
25.500000, -25.000000, 7.63017
25.500000, -24.500000, 7.474824
25.500000, -24.000000, 7.322908
25.500000, -23.500000, 7.174404
25.500000, -23.000000, 7.02929
25.500000, -22.500000, 6.887551
25.500000, -22.000000, 6.749166
25.500000, -21.500000, 6.61412
25.500000, -21.000000, 6.482395
25.500000, -20.500000, 6.353976
25.500000, -20.000000, 6.228846
25.500000, -19.500000, 6.106991
25.500000, -19.000000, 5.988395
25.500000, -18.500000, 5.873044
25.500000, -18.000000, 5.760925
25.500000, -17.500000, 5.652024
25.500000, -17.000000, 5.546328
25.500000, -16.500000, 5.443826
25.500000, -16.000000, 5.344504
25.500000, -15.500000, 5.248352
25.500000, -15.000000, 5.155357
25.500000, -14.500000, 5.065511
25.500000, -14.000000, 4.978802
25.500000, -13.500000, 4.895219
25.500000, -13.000000, 4.814755
25.500000, -12.500000, 4.737399
25.500000, -12.000000, 4.663144
25.500000, -11.500000, 4.591979
25.500000, -11.000000, 4.523899
25.500000, -10.500000, 4.458894
25.500000, -10.000000, 4.396958
25.500000, -9.500000, 4.338084
25.500000, -9.000000, 4.282266
25.500000, -8.500000, 4.229496
25.500000, -8.000000, 4.17977
25.500000, -7.500000, 4.133082
25.500000, -7.000000, 4.089426
25.500000, -6.500000, 4.048799
25.500000, -6.000000, 4.011195
25.500000, -5.500000, 3.97661
25.500000, -5.000000, 3.945041
25.500000, -4.500000, 3.916485
25.500000, -4.000000, 3.890938
25.500000, -3.500000, 3.868397
25.500000, -3.000000, 3.84886
25.500000, -2.500000, 3.832325
25.500000, -2.000000, 3.81879
25.500000, -1.500000, 3.808254
25.500000, -1.000000, 3.800715
25.500000, -0.500000, 3.796173
25.500000, 0.000000, 3.794627
25.500000, 0.500000, 3.796077
25.500000, 1.000000, 3.800524
25.500000, 1.500000, 3.807967
25.500000, 2.000000, 3.818407
25.500000, 2.500000, 3.831846
25.500000, 3.000000, 3.848285
25.500000, 3.500000, 3.867726
25.500000, 4.000000, 3.890171
25.500000, 4.500000, 3.915622
25.500000, 5.000000, 3.944082
25.500000, 5.500000, 3.975555
25.500000, 6.000000, 4.010043
25.500000, 6.500000, 4.04755
25.500000, 7.000000, 4.088081
25.500000, 7.500000, 4.131639
25.500000, 8.000000, 4.178231
25.500000, 8.500000, 4.22786
25.500000, 9.000000, 4.280532
25.500000, 9.500000, 4.336253
25.500000, 10.000000, 4.395029
25.500000, 10.500000, 4.456867
25.500000, 11.000000, 4.521774
25.500000, 11.500000, 4.589756
25.500000, 12.000000, 4.660821
25.500000, 12.500000, 4.734978
25.500000, 13.000000, 4.812235
25.500000, 13.500000, 4.8926
25.500000, 14.000000, 4.976082
25.500000, 14.500000, 5.062691
25.500000, 15.000000, 5.152437
25.500000, 15.500000, 5.245331
25.500000, 16.000000, 5.341382
25.500000, 16.500000, 5.440602
25.500000, 17.000000, 5.543003
25.500000, 17.500000, 5.648596
25.500000, 18.000000, 5.757395
25.500000, 18.500000, 5.869411
25.500000, 19.000000, 5.984658
25.500000, 19.500000, 6.10315
25.500000, 20.000000, 6.224901
25.500000, 20.500000, 6.349926
25.500000, 21.000000, 6.47824
25.500000, 21.500000, 6.609859
25.500000, 22.000000, 6.744799
25.500000, 22.500000, 6.883076
25.500000, 23.000000, 7.024708
25.500000, 23.500000, 7.169713
25.500000, 24.000000, 7.31811
25.500000, 24.500000, 7.469916
25.500000, 25.000000, 7.625151
25.500000, 25.500000, 7.783837
25.500000, 26.000000, 7.945993
25.500000, 26.500000, 8.11164
25.500000, 27.000000, 8.280801
25.500000, 27.500000, 8.453498
25.500000, 28.000000, 8.629755
25.500000, 28.500000, 8.809596
25.500000, 29.000000, 8.993045
25.500000, 29.500000, 9.180127
25.500000, 30.000000, 9.37087
25.500000, 30.500000, 9.565299
25.500000, 31.000000, 9.763443
25.500000, 31.500000, 9.965331
25.500000, 32.000000, 10.170991
25.500000, 32.500000, 10.380453
25.500000, 33.000000, 10.59375
25.500000, 33.500000, 10.810914
25.500000, 34.000000, 11.031976
25.500000, 34.500000, 11.256972
25.500000, 35.000000, 11.485936
25.500000, 35.500000, 11.718904
25.500000, 36.000000, 11.955915
25.500000, 36.500000, 12.197005
25.500000, 37.000000, 12.442214
25.500000, 37.500000, 12.691584
25.500000, 38.000000, 12.945155
25.500000, 38.500000, 13.202971
25.500000, 39.000000, 13.465077
25.500000, 39.500000, 13.731519
25.500000, 40.000000, 14.002343
25.500000, 40.500000, 14.277599
25.500000, 41.000000, 14.557336
25.500000, 41.500000, 14.841608
25.500000, 42.000000, 15.130467
25.500000, 42.500000, 15.423969
26.000000, -42.500000, 15.612581
26.000000, -42.000000, 15.318198
26.000000, -41.500000, 15.028477
26.000000, -41.000000, 14.743363
26.000000, -40.500000, 14.4628
26.000000, -40.000000, 14.186737
26.000000, -39.500000, 13.915123
26.000000, -39.000000, 13.647908
26.000000, -38.500000, 13.385045
26.000000, -38.000000, 13.126488
26.000000, -37.500000, 12.872191
26.000000, -37.000000, 12.62211
26.000000, -36.500000, 12.376205
26.000000, -36.000000, 12.134433
26.000000, -35.500000, 11.896756
26.000000, -35.000000, 11.663133
26.000000, -34.500000, 11.433528
26.000000, -34.000000, 11.207905
26.000000, -33.500000, 10.986228
26.000000, -33.000000, 10.768462
26.000000, -32.500000, 10.554575
26.000000, -32.000000, 10.344534
26.000000, -31.500000, 10.138307
26.000000, -31.000000, 9.935865
26.000000, -30.500000, 9.737177
26.000000, -30.000000, 9.542215
26.000000, -29.500000, 9.35095
26.000000, -29.000000, 9.163356
26.000000, -28.500000, 8.979406
26.000000, -28.000000, 8.799074
26.000000, -27.500000, 8.622336
26.000000, -27.000000, 8.449167
26.000000, -26.500000, 8.279544
26.000000, -26.000000, 8.113444
26.000000, -25.500000, 7.950845
26.000000, -25.000000, 7.791726
26.000000, -24.500000, 7.636065
26.000000, -24.000000, 7.483842
26.000000, -23.500000, 7.335038
26.000000, -23.000000, 7.189634
26.000000, -22.500000, 7.04761
26.000000, -22.000000, 6.90895
26.000000, -21.500000, 6.773636
26.000000, -21.000000, 6.641651
26.000000, -20.500000, 6.512978
26.000000, -20.000000, 6.387602
26.000000, -19.500000, 6.265507
26.000000, -19.000000, 6.14668
26.000000, -18.500000, 6.031104
26.000000, -18.000000, 5.918767
26.000000, -17.500000, 5.809655
26.000000, -17.000000, 5.703755
26.000000, -16.500000, 5.601055
26.000000, -16.000000, 5.501542
26.000000, -15.500000, 5.405205
26.000000, -15.000000, 5.312033
26.000000, -14.500000, 5.222015
26.000000, -14.000000, 5.13514
26.000000, -13.500000, 5.051399
26.000000, -13.000000, 4.970782
26.000000, -12.500000, 4.89328
26.000000, -12.000000, 4.818884
26.000000, -11.500000, 4.747585
26.000000, -11.000000, 4.679376
26.000000, -10.500000, 4.614249
26.000000, -10.000000, 4.552197
26.000000, -9.500000, 4.493212
26.000000, -9.000000, 4.437289
26.000000, -8.500000, 4.384421
26.000000, -8.000000, 4.334602
26.000000, -7.500000, 4.287826
26.000000, -7.000000, 4.244089
26.000000, -6.500000, 4.203386
26.000000, -6.000000, 4.165712
26.000000, -5.500000, 4.131064
26.000000, -5.000000, 4.099436
26.000000, -4.500000, 4.070827
26.000000, -4.000000, 4.045232
26.000000, -3.500000, 4.022649
26.000000, -3.000000, 4.003076
26.000000, -2.500000, 3.986511
26.000000, -2.000000, 3.972951
26.000000, -1.500000, 3.962395
26.000000, -1.000000, 3.954842
26.000000, -0.500000, 3.950292
26.000000, 0.000000, 3.948743
26.000000, 0.500000, 3.950196
26.000000, 1.000000, 3.95465
26.000000, 1.500000, 3.962107
26.000000, 2.000000, 3.972567
26.000000, 2.500000, 3.986031
26.000000, 3.000000, 4.0025
26.000000, 3.500000, 4.021977
26.000000, 4.000000, 4.044464
26.000000, 4.500000, 4.069962
26.000000, 5.000000, 4.098475
26.000000, 5.500000, 4.130006
26.000000, 6.000000, 4.164558
26.000000, 6.500000, 4.202135
26.000000, 7.000000, 4.242742
26.000000, 7.500000, 4.286381
26.000000, 8.000000, 4.33306
26.000000, 8.500000, 4.382781
26.000000, 9.000000, 4.435552
26.000000, 9.500000, 4.491378
26.000000, 10.000000, 4.550264
26.000000, 10.500000, 4.612218
26.000000, 11.000000, 4.677247
26.000000, 11.500000, 4.745357
26.000000, 12.000000, 4.816557
26.000000, 12.500000, 4.890854
26.000000, 13.000000, 4.968257
26.000000, 13.500000, 5.048774
26.000000, 14.000000, 5.132415
26.000000, 14.500000, 5.21919
26.000000, 15.000000, 5.309107
26.000000, 15.500000, 5.402178
26.000000, 16.000000, 5.498414
26.000000, 16.500000, 5.597825
26.000000, 17.000000, 5.700423
26.000000, 17.500000, 5.806221
26.000000, 18.000000, 5.91523
26.000000, 18.500000, 6.027464
26.000000, 19.000000, 6.142935
26.000000, 19.500000, 6.261659
26.000000, 20.000000, 6.383649
26.000000, 20.500000, 6.50892
26.000000, 21.000000, 6.637487
26.000000, 21.500000, 6.769366
26.000000, 22.000000, 6.904574
26.000000, 22.500000, 7.043127
26.000000, 23.000000, 7.185042
26.000000, 23.500000, 7.330338
26.000000, 24.000000, 7.479033
26.000000, 24.500000, 7.631146
26.000000, 25.000000, 7.786697
26.000000, 25.500000, 7.945706
26.000000, 26.000000, 8.108193
26.000000, 26.500000, 8.274181
26.000000, 27.000000, 8.443691
26.000000, 27.500000, 8.616746
26.000000, 28.000000, 8.79337
26.000000, 28.500000, 8.973586
26.000000, 29.000000, 9.15742
26.000000, 29.500000, 9.344898
26.000000, 30.000000, 9.536045
26.000000, 30.500000, 9.730889
26.000000, 31.000000, 9.929457
26.000000, 31.500000, 10.131779
26.000000, 32.000000, 10.337884
26.000000, 32.500000, 10.547803
26.000000, 33.000000, 10.761566
26.000000, 33.500000, 10.979208
26.000000, 34.000000, 11.200759
26.000000, 34.500000, 11.426256
26.000000, 35.000000, 11.655733
26.000000, 35.500000, 11.889226
26.000000, 36.000000, 12.126774
26.000000, 36.500000, 12.368414
26.000000, 37.000000, 12.614187
26.000000, 37.500000, 12.864133
26.000000, 38.000000, 13.118294
26.000000, 38.500000, 13.376715
26.000000, 39.000000, 13.63944
26.000000, 39.500000, 13.906515
26.000000, 40.000000, 14.177988
26.000000, 40.500000, 14.453908
26.000000, 41.000000, 14.734326
26.000000, 41.500000, 15.019294
26.000000, 42.000000, 15.308867
26.000000, 42.500000, 15.6031
26.500000, -42.500000, 15.795684
26.500000, -42.000000, 15.500549
26.500000, -41.500000, 15.210095
26.500000, -41.000000, 14.924265
26.500000, -40.500000, 14.643003
26.500000, -40.000000, 14.366257
26.500000, -39.500000, 14.093976
26.500000, -39.000000, 13.82611
26.500000, -38.500000, 13.562612
26.500000, -38.000000, 13.303433
26.500000, -37.500000, 13.04853
26.500000, -37.000000, 12.797857
26.500000, -36.500000, 12.551373
26.500000, -36.000000, 12.309036
26.500000, -35.500000, 12.070806
26.500000, -35.000000, 11.836644
26.500000, -34.500000, 11.606513
26.500000, -34.000000, 11.380375
26.500000, -33.500000, 11.158195
26.500000, -33.000000, 10.939939
26.500000, -32.500000, 10.725573
26.500000, -32.000000, 10.515063
26.500000, -31.500000, 10.30838
26.500000, -31.000000, 10.105491
26.500000, -30.500000, 9.906367
26.500000, -30.000000, 9.710979
26.500000, -29.500000, 9.519299
26.500000, -29.000000, 9.3313
26.500000, -28.500000, 9.146954
26.500000, -28.000000, 8.966236
26.500000, -27.500000, 8.789121
26.500000, -27.000000, 8.615585
26.500000, -26.500000, 8.445604
26.500000, -26.000000, 8.279155
26.500000, -25.500000, 8.116215
26.500000, -25.000000, 7.956764
26.500000, -24.500000, 7.800779
26.500000, -24.000000, 7.648242
26.500000, -23.500000, 7.499131
26.500000, -23.000000, 7.353428
26.500000, -22.500000, 7.211114
26.500000, -22.000000, 7.072171
26.500000, -21.500000, 6.936582
26.500000, -21.000000, 6.804329
26.500000, -20.500000, 6.675397
26.500000, -20.000000, 6.549768
26.500000, -19.500000, 6.427429
26.500000, -19.000000, 6.308363
26.500000, -18.500000, 6.192557
26.500000, -18.000000, 6.079997
26.500000, -17.500000, 5.970668
26.500000, -17.000000, 5.864559
26.500000, -16.500000, 5.761656
26.500000, -16.000000, 5.661947
26.500000, -15.500000, 5.565421
26.500000, -15.000000, 5.472066
26.500000, -14.500000, 5.381872
26.500000, -14.000000, 5.294828
26.500000, -13.500000, 5.210924
26.500000, -13.000000, 5.13015
26.500000, -12.500000, 5.052497
26.500000, -12.000000, 4.977957
26.500000, -11.500000, 4.906521
26.500000, -11.000000, 4.838181
26.500000, -10.500000, 4.772928
26.500000, -10.000000, 4.710757
26.500000, -9.500000, 4.651659
26.500000, -9.000000, 4.595628
26.500000, -8.500000, 4.542659
26.500000, -8.000000, 4.492744
26.500000, -7.500000, 4.44588
26.500000, -7.000000, 4.402059
26.500000, -6.500000, 4.361279
26.500000, -6.000000, 4.323533
26.500000, -5.500000, 4.288818
26.500000, -5.000000, 4.257131
26.500000, -4.500000, 4.228467
26.500000, -4.000000, 4.202824
26.500000, -3.500000, 4.180198
26.500000, -3.000000, 4.160588
26.500000, -2.500000, 4.143991
26.500000, -2.000000, 4.130405
26.500000, -1.500000, 4.11983
26.500000, -1.000000, 4.112263
26.500000, -0.500000, 4.107704
26.500000, 0.000000, 4.106152
26.500000, 0.500000, 4.107607
26.500000, 1.000000, 4.11207
26.500000, 1.500000, 4.119541
26.500000, 2.000000, 4.130021
26.500000, 2.500000, 4.14351
26.500000, 3.000000, 4.160011
26.500000, 3.500000, 4.179525
26.500000, 4.000000, 4.202054
26.500000, 4.500000, 4.227601
26.500000, 5.000000, 4.256168
26.500000, 5.500000, 4.287759
26.500000, 6.000000, 4.322377
26.500000, 6.500000, 4.360025
26.500000, 7.000000, 4.400709
26.500000, 7.500000, 4.444432
26.500000, 8.000000, 4.491199
26.500000, 8.500000, 4.541016
26.500000, 9.000000, 4.593888
26.500000, 9.500000, 4.649821
26.500000, 10.000000, 4.70882
26.500000, 10.500000, 4.770894
26.500000, 11.000000, 4.836047
26.500000, 11.500000, 4.904289
26.500000, 12.000000, 4.975626
26.500000, 12.500000, 5.050067
26.500000, 13.000000, 5.12762
26.500000, 13.500000, 5.208294
26.500000, 14.000000, 5.292098
26.500000, 14.500000, 5.379041
26.500000, 15.000000, 5.469135
26.500000, 15.500000, 5.562388
26.500000, 16.000000, 5.658813
26.500000, 16.500000, 5.75842
26.500000, 17.000000, 5.86122
26.500000, 17.500000, 5.967227
26.500000, 18.000000, 6.076452
26.500000, 18.500000, 6.188909
26.500000, 19.000000, 6.304612
26.500000, 19.500000, 6.423573
26.500000, 20.000000, 6.545807
26.500000, 20.500000, 6.67133
26.500000, 21.000000, 6.800157
26.500000, 21.500000, 6.932303
26.500000, 22.000000, 7.067786
26.500000, 22.500000, 7.206621
26.500000, 23.000000, 7.348827
26.500000, 23.500000, 7.494422
26.500000, 24.000000, 7.643423
26.500000, 24.500000, 7.795851
26.500000, 25.000000, 7.951725
26.500000, 25.500000, 8.111065
26.500000, 26.000000, 8.273893
26.500000, 26.500000, 8.44023
26.500000, 27.000000, 8.610098
26.500000, 27.500000, 8.78352
26.500000, 28.000000, 8.96052
26.500000, 28.500000, 9.141122
26.500000, 29.000000, 9.325351
26.500000, 29.500000, 9.513234
26.500000, 30.000000, 9.704796
26.500000, 30.500000, 9.900065
26.500000, 31.000000, 10.099069
26.500000, 31.500000, 10.301837
26.500000, 32.000000, 10.508399
26.500000, 32.500000, 10.718785
26.500000, 33.000000, 10.933028
26.500000, 33.500000, 11.151159
26.500000, 34.000000, 11.373213
26.500000, 34.500000, 11.599224
26.500000, 35.000000, 11.829227
26.500000, 35.500000, 12.06326
26.500000, 36.000000, 12.301359
26.500000, 36.500000, 12.543564
26.500000, 37.000000, 12.789915
26.500000, 37.500000, 13.040453
26.500000, 38.000000, 13.29522
26.500000, 38.500000, 13.554262
26.500000, 39.000000, 13.817622
26.500000, 39.500000, 14.085347
26.500000, 40.000000, 14.357486
26.500000, 40.500000, 14.634088
26.500000, 41.000000, 14.915205
26.500000, 41.500000, 15.200889
26.500000, 42.000000, 15.491194
26.500000, 42.500000, 15.786178
27.000000, -42.500000, 15.982765
27.000000, -42.000000, 15.686859
27.000000, -41.500000, 15.395652
27.000000, -41.000000, 15.109086
27.000000, -40.500000, 14.827106
27.000000, -40.000000, 14.54966
27.000000, -39.500000, 14.276694
27.000000, -39.000000, 14.00816
27.000000, -38.500000, 13.744009
27.000000, -38.000000, 13.484193
27.000000, -37.500000, 13.228666
27.000000, -37.000000, 12.977386
27.000000, -36.500000, 12.730308
27.000000, -36.000000, 12.487391
27.000000, -35.500000, 12.248595
27.000000, -35.000000, 12.013879
27.000000, -34.500000, 11.783207
27.000000, -34.000000, 11.556542
27.000000, -33.500000, 11.333846
27.000000, -33.000000, 11.115086
27.000000, -32.500000, 10.900228
27.000000, -32.000000, 10.689238
27.000000, -31.500000, 10.482086
27.000000, -31.000000, 10.278739
27.000000, -30.500000, 10.079168
27.000000, -30.000000, 9.883344
27.000000, -29.500000, 9.691238
27.000000, -29.000000, 9.502822
27.000000, -28.500000, 9.318071
27.000000, -28.000000, 9.136957
27.000000, -27.500000, 8.959456
27.000000, -27.000000, 8.785543
27.000000, -26.500000, 8.615194
27.000000, -26.000000, 8.448387
27.000000, -25.500000, 8.285098
27.000000, -25.000000, 8.125306
27.000000, -24.500000, 7.96899
27.000000, -24.000000, 7.81613
27.000000, -23.500000, 7.666704
27.000000, -23.000000, 7.520695
27.000000, -22.500000, 7.378083
27.000000, -22.000000, 7.23885
27.000000, -21.500000, 7.102979
27.000000, -21.000000, 6.970452
27.000000, -20.500000, 6.841253
27.000000, -20.000000, 6.715366
27.000000, -19.500000, 6.592775
27.000000, -19.000000, 6.473466
27.000000, -18.500000, 6.357423
