-23.000000, -41.000000, 11.041873
-23.000000, -40.500000, 10.774425
-23.000000, -40.000000, 10.511583
-23.000000, -39.500000, 10.253315
-23.000000, -39.000000, 9.999591
-23.000000, -38.500000, 9.750379
-23.000000, -38.000000, 9.505652
-23.000000, -37.500000, 9.265381
-23.000000, -37.000000, 9.029541
-23.000000, -36.500000, 8.798107
-23.000000, -36.000000, 8.571054
-23.000000, -35.500000, 8.348359
-23.000000, -35.000000, 8.13
-23.000000, -34.500000, 7.915957
-23.000000, -34.000000, 7.706208
-23.000000, -33.500000, 7.500734
-23.000000, -33.000000, 7.299517
-23.000000, -32.500000, 7.102538
-23.000000, -32.000000, 6.909779
-23.000000, -31.500000, 6.721223
-23.000000, -31.000000, 6.536853
-23.000000, -30.500000, 6.356652
-23.000000, -30.000000, 6.180605
-23.000000, -29.500000, 6.008695
-23.000000, -29.000000, 5.840906
-23.000000, -28.500000, 5.677221
-23.000000, -28.000000, 5.517624
-23.000000, -27.500000, 5.362099
-23.000000, -27.000000, 5.210627
-23.000000, -26.500000, 5.063193
-23.000000, -26.000000, 4.919776
-23.000000, -25.500000, 4.780358
-23.000000, -25.000000, 4.644919
-23.000000, -24.500000, 4.513438
-23.000000, -24.000000, 4.385891
-23.000000, -23.500000, 4.262256
-23.000000, -23.000000, 4.142507
-23.000000, -22.500000, 4.026617
-23.000000, -22.000000, 3.914556
-23.000000, -21.500000, 3.806295
-23.000000, -21.000000, 3.701799
-23.000000, -20.500000, 3.601033
-23.000000, -20.000000, 3.503958
-23.000000, -19.500000, 3.410535
-23.000000, -19.000000, 3.320719
-23.000000, -18.500000, 3.234464
-23.000000, -18.000000, 3.15172
-23.000000, -17.500000, 3.072434
-23.000000, -17.000000, 2.996549
-23.000000, -16.500000, 2.924007
-23.000000, -16.000000, 2.854745
-23.000000, -15.500000, 2.788695
-23.000000, -15.000000, 2.725789
-23.000000, -14.500000, 2.665954
-23.000000, -14.000000, 2.609114
-23.000000, -13.500000, 2.55519
-23.000000, -13.000000, 2.504101
-23.000000, -12.500000, 2.455763
-23.000000, -12.000000, 2.410091
-23.000000, -11.500000, 2.366998
-23.000000, -11.000000, 2.326396
-23.000000, -10.500000, 2.288198
-23.000000, -10.000000, 2.252314
-23.000000, -9.500000, 2.218658
-23.000000, -9.000000, 2.187145
-23.000000, -8.500000, 2.157693
-23.000000, -8.000000, 2.13022
-23.000000, -7.500000, 2.104653
-23.000000, -7.000000, 2.080918
-23.000000, -6.500000, 2.05895
-23.000000, -6.000000, 2.038688
-23.000000, -5.500000, 2.020077
-23.000000, -5.000000, 2.003069
-23.000000, -4.500000, 1.987621
-23.000000, -4.000000, 1.973697
-23.000000, -3.500000, 1.961268
-23.000000, -3.000000, 1.950309
-23.000000, -2.500000, 1.940802
-23.000000, -2.000000, 1.932735
-23.000000, -1.500000, 1.926102
-23.000000, -1.000000, 1.9209
-23.000000, -0.500000, 1.917131
-23.000000, 0.000000, 1.914805
-23.000000, 0.500000, 1.913933
-23.000000, 1.000000, 1.914532
-23.000000, 1.500000, 1.916626
-23.000000, 2.000000, 1.92024
-23.000000, 2.500000, 1.925406
-23.000000, 3.000000, 1.93216
-23.000000, 3.500000, 1.940543
-23.000000, 4.000000, 1.950599
-23.000000, 4.500000, 1.962377
-23.000000, 5.000000, 1.97593
-23.000000, 5.500000, 1.991314
-23.000000, 6.000000, 2.008589
-23.000000, 6.500000, 2.027818
-23.000000, 7.000000, 2.049066
-23.000000, 7.500000, 2.072399
-23.000000, 8.000000, 2.097886
-23.000000, 8.500000, 2.125597
-23.000000, 9.000000, 2.155602
-23.000000, 9.500000, 2.187973
-23.000000, 10.000000, 2.22278
-23.000000, 10.500000, 2.260095
-23.000000, 11.000000, 2.299988
-23.000000, 11.500000, 2.342526
-23.000000, 12.000000, 2.38778
-23.000000, 12.500000, 2.435814
-23.000000, 13.000000, 2.486695
-23.000000, 13.500000, 2.540485
-23.000000, 14.000000, 2.597245
-23.000000, 14.500000, 2.657035
-23.000000, 15.000000, 2.719911
-23.000000, 15.500000, 2.78593
-23.000000, 16.000000, 2.855142
-23.000000, 16.500000, 2.927599
-23.000000, 17.000000, 3.00335
-23.000000, 17.500000, 3.08244
-23.000000, 18.000000, 3.164913
-23.000000, 18.500000, 3.250811
-23.000000, 19.000000, 3.340174
-23.000000, 19.500000, 3.43304
-23.000000, 20.000000, 3.529444
-23.000000, 20.500000, 3.629422
-23.000000, 21.000000, 3.733005
-23.000000, 21.500000, 3.840225
-23.000000, 22.000000, 3.95111
-23.000000, 22.500000, 4.065689
-23.000000, 23.000000, 4.183989
-23.000000, 23.500000, 4.306035
-23.000000, 24.000000, 4.431851
-23.000000, 24.500000, 4.561461
-23.000000, 25.000000, 4.694887
-23.000000, 25.500000, 4.832151
-23.000000, 26.000000, 4.973275
-23.000000, 26.500000, 5.118278
-23.000000, 27.000000, 5.26718
-23.000000, 27.500000, 5.420001
-23.000000, 28.000000, 5.576761
-23.000000, 28.500000, 5.737477
-23.000000, 29.000000, 5.90217
-23.000000, 29.500000, 6.070857
-23.000000, 30.000000, 6.243558
-23.000000, 30.500000, 6.420291
-23.000000, 31.000000, 6.601075
-23.000000, 31.500000, 6.78593
-23.000000, 32.000000, 6.974874
-23.000000, 32.500000, 7.167929
-23.000000, 33.000000, 7.365113
-23.000000, 33.500000, 7.566449
-23.000000, 34.000000, 7.771957
-23.000000, 34.500000, 7.98166
-23.000000, 35.000000, 8.195579
-23.000000, 35.500000, 8.413739
-23.000000, 36.000000, 8.636163
-23.000000, 36.500000, 8.862877
-23.000000, 37.000000, 9.093906
-23.000000, 37.500000, 9.329277
-23.000000, 38.000000, 9.569019
-23.000000, 38.500000, 9.81316
-23.000000, 39.000000, 10.06173
-23.000000, 39.500000, 10.314761
-23.000000, 40.000000, 10.572284
-23.000000, 40.500000, 10.834334
-23.000000, 41.000000, 11.100946
-23.000000, 41.500000, 11.372156
-23.000000, 42.000000, 11.648002
-23.000000, 42.500000, 11.928523
-22.500000, -42.500000, 11.812891
-22.500000, -42.000000, 11.531079
-22.500000, -41.500000, 11.253969
-22.500000, -41.000000, 10.981524
-22.500000, -40.500000, 10.713709
-22.500000, -40.000000, 10.45049
-22.500000, -39.500000, 10.191835
-22.500000, -39.000000, 9.937711
-22.500000, -38.500000, 9.68809
-22.500000, -38.000000, 9.442943
-22.500000, -37.500000, 9.202243
-22.500000, -37.000000, 8.965964
-22.500000, -36.500000, 8.734081
-22.500000, -36.000000, 8.506571
-22.500000, -35.500000, 8.283412
-22.500000, -35.000000, 8.064581
-22.500000, -34.500000, 7.850058
-22.500000, -34.000000, 7.639824
-22.500000, -33.500000, 7.433859
-22.500000, -33.000000, 7.232145
-22.500000, -32.500000, 7.034665
-22.500000, -32.000000, 6.841402
-22.500000, -31.500000, 6.652338
-22.500000, -31.000000, 6.46746
-22.500000, -30.500000, 6.286749
-22.500000, -30.000000, 6.110193
-22.500000, -29.500000, 5.937774
-22.500000, -29.000000, 5.769478
-22.500000, -28.500000, 5.60529
-22.500000, -28.000000, 5.445194
-22.500000, -27.500000, 5.289176
-22.500000, -27.000000, 5.137218
-22.500000, -26.500000, 4.989305
-22.500000, -26.000000, 4.84542
-22.500000, -25.500000, 4.705545
-22.500000, -25.000000, 4.569661
-22.500000, -24.500000, 4.437748
-22.500000, -24.000000, 4.309785
-22.500000, -23.500000, 4.185751
-22.500000, -23.000000, 4.065621
-22.500000, -22.500000, 3.949369
-22.500000, -22.000000, 3.836968
-22.500000, -21.500000, 3.728388
-22.500000, -21.000000, 3.623598
-22.500000, -20.500000, 3.522563
-22.500000, -20.000000, 3.425247
-22.500000, -19.500000, 3.331609
-22.500000, -19.000000, 3.241606
-22.500000, -18.500000, 3.155195
-22.500000, -18.000000, 3.072324
-22.500000, -17.500000, 2.992943
-22.500000, -17.000000, 2.916995
-22.500000, -16.500000, 2.84442
-22.500000, -16.000000, 2.775156
-22.500000, -15.500000, 2.709137
-22.500000, -15.000000, 2.646292
-22.500000, -14.500000, 2.586547
-22.500000, -14.000000, 2.529825
-22.500000, -13.500000, 2.476047
-22.500000, -13.000000, 2.425128
-22.500000, -12.500000, 2.376984
-22.500000, -12.000000, 2.331526
-22.500000, -11.500000, 2.288664
-22.500000, -11.000000, 2.248309
-22.500000, -10.500000, 2.210367
-22.500000, -10.000000, 2.174748
-22.500000, -9.500000, 2.141362
-22.500000, -9.000000, 2.110119
-22.500000, -8.500000, 2.080933
-22.500000, -8.000000, 2.053722
-22.500000, -7.500000, 2.028405
-22.500000, -7.000000, 2.004908
-22.500000, -6.500000, 1.983163
-22.500000, -6.000000, 1.963106
-22.500000, -5.500000, 1.944681
-22.500000, -5.000000, 1.927838
-22.500000, -4.500000, 1.912533
-22.500000, -4.000000, 1.89873
-22.500000, -3.500000, 1.886398
-22.500000, -3.000000, 1.875515
-22.500000, -2.500000, 1.866062
-22.500000, -2.000000, 1.858027
-22.500000, -1.500000, 1.851403
-22.500000, -1.000000, 1.84619
-22.500000, -0.500000, 1.842389
-22.500000, 0.000000, 1.840011
-22.500000, 0.500000, 1.839066
-22.500000, 1.000000, 1.839574
-22.500000, 1.500000, 1.841557
-22.500000, 2.000000, 1.845041
-22.500000, 2.500000, 1.850061
-22.500000, 3.000000, 1.856651
-22.500000, 3.500000, 1.864855
-22.500000, 4.000000, 1.874718
-22.500000, 4.500000, 1.88629
-22.500000, 5.000000, 1.899628
-22.500000, 5.500000, 1.914788
-22.500000, 6.000000, 1.931833
-22.500000, 6.500000, 1.950827
-22.500000, 7.000000, 1.971838
-22.500000, 7.500000, 1.994935
-22.500000, 8.000000, 2.020189
-22.500000, 8.500000, 2.047673
-22.500000, 9.000000, 2.077458
-22.500000, 9.500000, 2.109619
-22.500000, 10.000000, 2.144228
-22.500000, 10.500000, 2.181359
-22.500000, 11.000000, 2.221083
-22.500000, 11.500000, 2.26347
-22.500000, 12.000000, 2.308591
-22.500000, 12.500000, 2.356512
-22.500000, 13.000000, 2.407301
-22.500000, 13.500000, 2.461021
-22.500000, 14.000000, 2.517733
-22.500000, 14.500000, 2.577499
-22.500000, 15.000000, 2.640375
-22.500000, 15.500000, 2.706416
-22.500000, 16.000000, 2.775676
-22.500000, 16.500000, 2.848204
-22.500000, 17.000000, 2.924048
-22.500000, 17.500000, 3.003255
-22.500000, 18.000000, 3.085868
-22.500000, 18.500000, 3.171929
-22.500000, 19.000000, 3.261476
-22.500000, 19.500000, 3.354546
-22.500000, 20.000000, 3.451176
-22.500000, 20.500000, 3.551397
-22.500000, 21.000000, 3.655243
-22.500000, 21.500000, 3.762742
-22.500000, 22.000000, 3.873924
-22.500000, 22.500000, 3.988815
-22.500000, 23.000000, 4.107441
-22.500000, 23.500000, 4.229827
-22.500000, 24.000000, 4.355995
-22.500000, 24.500000, 4.485969
-22.500000, 25.000000, 4.619769
-22.500000, 25.500000, 4.757417
-22.500000, 26.000000, 4.898932
-22.500000, 26.500000, 5.044335
-22.500000, 27.000000, 5.193643
-22.500000, 27.500000, 5.346876
-22.500000, 28.000000, 5.504051
-22.500000, 28.500000, 5.665188
-22.500000, 29.000000, 5.830303
-22.500000, 29.500000, 5.999415
-22.500000, 30.000000, 6.172541
-22.500000, 30.500000, 6.349701
-22.500000, 31.000000, 6.530911
-22.500000, 31.500000, 6.716191
-22.500000, 32.000000, 6.905559
-22.500000, 32.500000, 7.099034
-22.500000, 33.000000, 7.296637
-22.500000, 33.500000, 7.498387
-22.500000, 34.000000, 7.704306
-22.500000, 34.500000, 7.914414
-22.500000, 35.000000, 8.128734
-22.500000, 35.500000, 8.347289
-22.500000, 36.000000, 8.570102
-22.500000, 36.500000, 8.797198
-22.500000, 37.000000, 9.028603
-22.500000, 37.500000, 9.264342
-22.500000, 38.000000, 9.504444
-22.500000, 38.500000, 9.748938
-22.500000, 39.000000, 9.997852
-22.500000, 39.500000, 10.251218
-22.500000, 40.000000, 10.509068
-22.500000, 40.500000, 10.771436
-22.500000, 41.000000, 11.038356
-22.500000, 41.500000, 11.309864
-22.500000, 42.000000, 11.585999
-22.500000, 42.500000, 11.866799
-22.000000, -42.500000, 11.756305
-22.000000, -42.000000, 11.474172
-22.000000, -41.500000, 11.196729
-22.000000, -41.000000, 10.92394
-22.000000, -40.500000, 10.655768
-22.000000, -40.000000, 10.39218
-22.000000, -39.500000, 10.133143
-22.000000, -39.000000, 9.878628
-22.000000, -38.500000, 9.628603
-22.000000, -38.000000, 9.383042
-22.000000, -37.500000, 9.141917
-22.000000, -37.000000, 8.905202
-22.000000, -36.500000, 8.672875
-22.000000, -36.000000, 8.444911
-22.000000, -35.500000, 8.221288
-22.000000, -35.000000, 8.001985
-22.000000, -34.500000, 7.786982
-22.000000, -34.000000, 7.576261
-22.000000, -33.500000, 7.369802
-22.000000, -33.000000, 7.167588
-22.000000, -32.500000, 6.969602
-22.000000, -32.000000, 6.775828
-22.000000, -31.500000, 6.586251
-22.000000, -31.000000, 6.400855
-22.000000, -30.500000, 6.219626
-22.000000, -30.000000, 6.042549
-22.000000, -29.500000, 5.869609
-22.000000, -29.000000, 5.700794
-22.000000, -28.500000, 5.536088
-22.000000, -28.000000, 5.375478
-22.000000, -27.500000, 5.21895
-22.000000, -27.000000, 5.066488
-22.000000, -26.500000, 4.918078
-22.000000, -26.000000, 4.773704
-22.000000, -25.500000, 4.633349
-22.000000, -25.000000, 4.496997
-22.000000, -24.500000, 4.364629
-22.000000, -24.000000, 4.236226
-22.000000, -23.500000, 4.111766
-22.000000, -23.000000, 3.991227
-22.000000, -22.500000, 3.874586
-22.000000, -22.000000, 3.761816
-22.000000, -21.500000, 3.652889
-22.000000, -21.000000, 3.547775
-22.000000, -20.500000, 3.446441
-22.000000, -20.000000, 3.348851
-22.000000, -19.500000, 3.254967
-22.000000, -19.000000, 3.164748
-22.000000, -18.500000, 3.078148
-22.000000, -18.000000, 2.995121
-22.000000, -17.500000, 2.915613
-22.000000, -17.000000, 2.839571
-22.000000, -16.500000, 2.766934
-22.000000, -16.000000, 2.697641
-22.000000, -15.500000, 2.631624
-22.000000, -15.000000, 2.568812
-22.000000, -14.500000, 2.509132
-22.000000, -14.000000, 2.452504
-22.000000, -13.500000, 2.398849
-22.000000, -13.000000, 2.348079
-22.000000, -12.500000, 2.300108
-22.000000, -12.000000, 2.254845
-22.000000, -11.500000, 2.212198
-22.000000, -11.000000, 2.172072
-22.000000, -10.500000, 2.134373
-22.000000, -10.000000, 2.099006
-22.000000, -9.500000, 2.065877
-22.000000, -9.000000, 2.034893
-22.000000, -8.500000, 2.005964
-22.000000, -8.000000, 1.979003
-22.000000, -7.500000, 1.953927
-22.000000, -7.000000, 1.93066
-22.000000, -6.500000, 1.909129
-22.000000, -6.000000, 1.889268
-22.000000, -5.500000, 1.871021
-22.000000, -5.000000, 1.854334
-22.000000, -4.500000, 1.839164
-22.000000, -4.000000, 1.825475
-22.000000, -3.500000, 1.813235
-22.000000, -3.000000, 1.802422
-22.000000, -2.500000, 1.793017
-22.000000, -2.000000, 1.785011
-22.000000, -1.500000, 1.778395
-22.000000, -1.000000, 1.77317
-22.000000, -0.500000, 1.769338
-22.000000, 0.000000, 1.766908
-22.000000, 0.500000, 1.765894
-22.000000, 1.000000, 1.766314
-22.000000, 1.500000, 1.76819
-22.000000, 2.000000, 1.771551
-22.000000, 2.500000, 1.776429
-22.000000, 3.000000, 1.782863
-22.000000, 3.500000, 1.790894
-22.000000, 4.000000, 1.800572
-22.000000, 4.500000, 1.811947
-22.000000, 5.000000, 1.825077
-22.000000, 5.500000, 1.840022
-22.000000, 6.000000, 1.856846
-22.000000, 6.500000, 1.875616
-22.000000, 7.000000, 1.896401
-22.000000, 7.500000, 1.919274
-22.000000, 8.000000, 1.944308
-22.000000, 8.500000, 1.971578
-22.000000, 9.000000, 2.001157
-22.000000, 9.500000, 2.033123
-22.000000, 10.000000, 2.067551
-22.000000, 10.500000, 2.104514
-22.000000, 11.000000, 2.144087
-22.000000, 11.500000, 2.186342
-22.000000, 12.000000, 2.231349
-22.000000, 12.500000, 2.279179
-22.000000, 13.000000, 2.329897
-22.000000, 13.500000, 2.383569
-22.000000, 14.000000, 2.440257
-22.000000, 14.500000, 2.500022
-22.000000, 15.000000, 2.562921
-22.000000, 15.500000, 2.62901
-22.000000, 16.000000, 2.698341
-22.000000, 16.500000, 2.770965
-22.000000, 17.000000, 2.846929
-22.000000, 17.500000, 2.926278
-22.000000, 18.000000, 3.009057
-22.000000, 18.500000, 3.095305
-22.000000, 19.000000, 3.185061
-22.000000, 19.500000, 3.278361
-22.000000, 20.000000, 3.375239
-22.000000, 20.500000, 3.475729
-22.000000, 21.000000, 3.579861
-22.000000, 21.500000, 3.687663
-22.000000, 22.000000, 3.799164
-22.000000, 22.500000, 3.914389
-22.000000, 23.000000, 4.033363
-22.000000, 23.500000, 4.156108
-22.000000, 24.000000, 4.282649
-22.000000, 24.500000, 4.413005
-22.000000, 25.000000, 4.547198
-22.000000, 25.500000, 4.685246
-22.000000, 26.000000, 4.82717
-22.000000, 26.500000, 4.972988
-22.000000, 27.000000, 5.122716
-22.000000, 27.500000, 5.276374
-22.000000, 28.000000, 5.433979
-22.000000, 28.500000, 5.595547
-22.000000, 29.000000, 5.761096
-22.000000, 29.500000, 5.930643
-22.000000, 30.000000, 6.104204
-22.000000, 30.500000, 6.281798
-22.000000, 31.000000, 6.463442
-22.000000, 31.500000, 6.649154
-22.000000, 32.000000, 6.838951
-22.000000, 32.500000, 7.032853
-22.000000, 33.000000, 7.230878
-22.000000, 33.500000, 7.433046
-22.000000, 34.000000, 7.639377
-22.000000, 34.500000, 7.849893
-22.000000, 35.000000, 8.064614
-22.000000, 35.500000, 8.283564
-22.000000, 36.000000, 8.506765
-22.000000, 36.500000, 8.734243
-22.000000, 37.000000, 8.966021
-22.000000, 37.500000, 9.202126
-22.000000, 38.000000, 9.442586
-22.000000, 38.500000, 9.687428
-22.000000, 39.000000, 9.936682
-22.000000, 39.500000, 10.190379
-22.000000, 40.000000, 10.44855
-22.000000, 40.500000, 10.711229
-22.000000, 41.000000, 10.978451
-22.000000, 41.500000, 11.250251
-22.000000, 42.000000, 11.526668
-22.000000, 42.500000, 11.807739
-21.500000, -42.500000, 11.702419
-21.500000, -42.000000, 11.419978
-21.500000, -41.500000, 11.142214
-21.500000, -41.000000, 10.86909
-21.500000, -40.500000, 10.600571
-21.500000, -40.000000, 10.336624
-21.500000, -39.500000, 10.077216
-21.500000, -39.000000, 9.822316
-21.500000, -38.500000, 9.571896
-21.500000, -38.000000, 9.325927
-21.500000, -37.500000, 9.084384
-21.500000, -37.000000, 8.84724
-21.500000, -36.500000, 8.614472
-21.500000, -36.000000, 8.386057
-21.500000, -35.500000, 8.161974
-21.500000, -35.000000, 7.942201
-21.500000, -34.500000, 7.72672
-21.500000, -34.000000, 7.515511
-21.500000, -33.500000, 7.308557
-21.500000, -33.000000, 7.105841
-21.500000, -32.500000, 6.907346
-21.500000, -32.000000, 6.713058
-21.500000, -31.500000, 6.522961
-21.500000, -31.000000, 6.337041
-21.500000, -30.500000, 6.155285
-21.500000, -30.000000, 5.977678
-21.500000, -29.500000, 5.804208
-21.500000, -29.000000, 5.634861
-21.500000, -28.500000, 5.469625
-21.500000, -28.000000, 5.308486
-21.500000, -27.500000, 5.151432
-21.500000, -27.000000, 4.998449
-21.500000, -26.500000, 4.849523
-21.500000, -26.000000, 4.70464
-21.500000, -25.500000, 4.563786
-21.500000, -25.000000, 4.426943
-21.500000, -24.500000, 4.294096
-21.500000, -24.000000, 4.165227
-21.500000, -23.500000, 4.040316
-21.500000, -23.000000, 3.919342
-21.500000, -22.500000, 3.802284
-21.500000, -22.000000, 3.689116
-21.500000, -21.500000, 3.579812
-21.500000, -21.000000, 3.474343
-21.500000, -20.500000, 3.372678
-21.500000, -20.000000, 3.274784
-21.500000, -19.500000, 3.180622
-21.500000, -19.000000, 3.090153
-21.500000, -18.500000, 3.003333
-21.500000, -18.000000, 2.920116
-21.500000, -17.500000, 2.84045
-21.500000, -17.000000, 2.764282
-21.500000, -16.500000, 2.691551
-21.500000, -16.000000, 2.622197
-21.500000, -15.500000, 2.556152
-21.500000, -15.000000, 2.493345
-21.500000, -14.500000, 2.433701
-21.500000, -14.000000, 2.377141
-21.500000, -13.500000, 2.323582
-21.500000, -13.000000, 2.272937
-21.500000, -12.500000, 2.225117
-21.500000, -12.000000, 2.180028
-21.500000, -11.500000, 2.137575
-21.500000, -11.000000, 2.097661
-21.500000, -10.500000, 2.060188
-21.500000, -10.000000, 2.025058
-21.500000, -9.500000, 1.992171
-21.500000, -9.000000, 1.961433
-21.500000, -8.500000, 1.932748
-21.500000, -8.000000, 1.906026
-21.500000, -7.500000, 1.88118
-21.500000, -7.000000, 1.858131
-21.500000, -6.500000, 1.836804
-21.500000, -6.000000, 1.81713
-21.500000, -5.500000, 1.79905
-21.500000, -5.000000, 1.78251
-21.500000, -4.500000, 1.767467
-21.500000, -4.000000, 1.753883
-21.500000, -3.500000, 1.741727
-21.500000, -3.000000, 1.730978
-21.500000, -2.500000, 1.721617
-21.500000, -2.000000, 1.713635
-21.500000, -1.500000, 1.707026
-21.500000, -1.000000, 1.701788
-21.500000, -0.500000, 1.697925
-21.500000, 0.000000, 1.695448
-21.500000, 0.500000, 1.694368
-21.500000, 1.000000, 1.694704
-21.500000, 1.500000, 1.69648
-21.500000, 2.000000, 1.699723
-21.500000, 2.500000, 1.704468
-21.500000, 3.000000, 1.710752
-21.500000, 3.500000, 1.71862
-21.500000, 4.000000, 1.728121
-21.500000, 4.500000, 1.739309
-21.500000, 5.000000, 1.752242
-21.500000, 5.500000, 1.766982
-21.500000, 6.000000, 1.783596
-21.500000, 6.500000, 1.802153
-21.500000, 7.000000, 1.822726
-21.500000, 7.500000, 1.845388
-21.500000, 8.000000, 1.870216
-21.500000, 8.500000, 1.897286
-21.500000, 9.000000, 1.926677
-21.500000, 9.500000, 1.958465
-21.500000, 10.000000, 1.992729
-21.500000, 10.500000, 2.029543
-21.500000, 11.000000, 2.068986
-21.500000, 11.500000, 2.111129
-21.500000, 12.000000, 2.156045
-21.500000, 12.500000, 2.203804
-21.500000, 13.000000, 2.254476
-21.500000, 13.500000, 2.308124
-21.500000, 14.000000, 2.364812
-21.500000, 14.500000, 2.424601
-21.500000, 15.000000, 2.487549
-21.500000, 15.500000, 2.553711
-21.500000, 16.000000, 2.62314
-21.500000, 16.500000, 2.695886
-21.500000, 17.000000, 2.771996
-21.500000, 17.500000, 2.851514
-21.500000, 18.000000, 2.934484
-21.500000, 18.500000, 3.020946
-21.500000, 19.000000, 3.110936
-21.500000, 19.500000, 3.204491
-21.500000, 20.000000, 3.301644
-21.500000, 20.500000, 3.402427
-21.500000, 21.000000, 3.506868
-21.500000, 21.500000, 3.614997
-21.500000, 22.000000, 3.726839
-21.500000, 22.500000, 3.84242
-21.500000, 23.000000, 3.961762
-21.500000, 23.500000, 4.084888
-21.500000, 24.000000, 4.21182
-21.500000, 24.500000, 4.342578
-21.500000, 25.000000, 4.47718
-21.500000, 25.500000, 4.615647
-21.500000, 26.000000, 4.757995
-21.500000, 26.500000, 4.904242
-21.500000, 27.000000, 5.054405
-21.500000, 27.500000, 5.208501
-21.500000, 28.000000, 5.366547
-21.500000, 28.500000, 5.528557
-21.500000, 29.000000, 5.69455
-21.500000, 29.500000, 5.864541
-21.500000, 30.000000, 6.038546
-21.500000, 30.500000, 6.216582
-21.500000, 31.000000, 6.398666
-21.500000, 31.500000, 6.584815
-21.500000, 32.000000, 6.775045
-21.500000, 32.500000, 6.969377
-21.500000, 33.000000, 7.167827
-21.500000, 33.500000, 7.370415
-21.500000, 34.000000, 7.57716
-21.500000, 34.500000, 7.788084
-21.500000, 35.000000, 8.003206
-21.500000, 35.500000, 8.22255
-21.500000, 36.000000, 8.446138
-21.500000, 36.500000, 8.673994
-21.500000, 37.000000, 8.906143
-21.500000, 37.500000, 9.14261
-21.500000, 38.000000, 9.383422
-21.500000, 38.500000, 9.628608
-21.500000, 39.000000, 9.878197
-21.500000, 39.500000, 10.132218
-21.500000, 40.000000, 10.390704
-21.500000, 40.500000, 10.653688
-21.500000, 41.000000, 10.921204
-21.500000, 41.500000, 11.193288
-21.500000, 42.000000, 11.469978
-21.500000, 42.500000, 11.751312
-21.000000, -42.500000, 11.651196
-21.000000, -42.000000, 11.368459
-21.000000, -41.500000, 11.090387
-21.000000, -41.000000, 10.816941
-21.000000, -40.500000, 10.548087
-21.000000, -40.000000, 10.283791
-21.000000, -39.500000, 10.024022
-21.000000, -39.000000, 9.768749
-21.000000, -38.500000, 9.517943
-21.000000, -38.000000, 9.271575
-21.000000, -37.500000, 9.029621
-21.000000, -37.000000, 8.792055
-21.000000, -36.500000, 8.558853
-21.000000, -36.000000, 8.329993
-21.000000, -35.500000, 8.105454
-21.000000, -35.000000, 7.885215
-21.000000, -34.500000, 7.669258
-21.000000, -34.000000, 7.457563
-21.000000, -33.500000, 7.250115
-21.000000, -33.000000, 7.046896
-21.000000, -32.500000, 6.847892
-21.000000, -32.000000, 6.653086
-21.000000, -31.500000, 6.462466
-21.000000, -31.000000, 6.276017
-21.000000, -30.500000, 6.093727
-21.000000, -30.000000, 5.915583
-21.000000, -29.500000, 5.741573
-21.000000, -29.000000, 5.571685
-21.000000, -28.500000, 5.405906
-21.000000, -28.000000, 5.244226
-21.000000, -27.500000, 5.086631
-21.000000, -27.000000, 4.933111
-21.000000, -26.500000, 4.783652
-21.000000, -26.000000, 4.638242
-21.000000, -25.500000, 4.496868
-21.000000, -25.000000, 4.359514
-21.000000, -24.500000, 4.226165
-21.000000, -24.000000, 4.096806
-21.000000, -23.500000, 3.971418
-21.000000, -23.000000, 3.849983
-21.000000, -22.500000, 3.732479
-21.000000, -22.000000, 3.618884
-21.000000, -21.500000, 3.509173
-21.000000, -21.000000, 3.403319
-21.000000, -20.500000, 3.301292
-21.000000, -20.000000, 3.203059
-21.000000, -19.500000, 3.108586
-21.000000, -19.000000, 3.017834
-21.000000, -18.500000, 2.93076
-21.000000, -18.000000, 2.847319
-21.000000, -17.500000, 2.767461
-21.000000, -17.000000, 2.691132
-21.000000, -16.500000, 2.618275
-21.000000, -16.000000, 2.548827
-21.000000, -15.500000, 2.482721
-21.000000, -15.000000, 2.419887
-21.000000, -14.500000, 2.360249
-21.000000, -14.000000, 2.303727
-21.000000, -13.500000, 2.250236
-21.000000, -13.000000, 2.199689
-21.000000, -12.500000, 2.151994
-21.000000, -12.000000, 2.107055
-21.000000, -11.500000, 2.064774
-21.000000, -11.000000, 2.025052
-21.000000, -10.500000, 1.987785
-21.000000, -10.000000, 1.952873
-21.000000, -9.500000, 1.920213
-21.000000, -9.000000, 1.889704
-21.000000, -8.500000, 1.861249
-21.000000, -8.000000, 1.834752
-21.000000, -7.500000, 1.810124
-21.000000, -7.000000, 1.787281
-21.000000, -6.500000, 1.766145
-21.000000, -6.000000, 1.746646
-21.000000, -5.500000, 1.728722
-21.000000, -5.000000, 1.712319
-21.000000, -4.500000, 1.697392
-21.000000, -4.000000, 1.683903
-21.000000, -3.500000, 1.671824
-21.000000, -3.000000, 1.661132
-21.000000, -2.500000, 1.65181
-21.000000, -2.000000, 1.643848
-21.000000, -1.500000, 1.637243
-21.000000, -1.000000, 1.631992
-21.000000, -0.500000, 1.628101
-21.000000, 0.000000, 1.625578
-21.000000, 0.500000, 1.624437
-21.000000, 1.000000, 1.624696
-21.000000, 1.500000, 1.626378
-21.000000, 2.000000, 1.629512
-21.000000, 2.500000, 1.634131
-21.000000, 3.000000, 1.640276
-21.000000, 3.500000, 1.647991
-21.000000, 4.000000, 1.657326
-21.000000, 4.500000, 1.668337
-21.000000, 5.000000, 1.681084
-21.000000, 5.500000, 1.695632
-21.000000, 6.000000, 1.712049
-21.000000, 6.500000, 1.730408
-21.000000, 7.000000, 1.750782
-21.000000, 7.500000, 1.773249
-21.000000, 8.000000, 1.797887
-21.000000, 8.500000, 1.824776
-21.000000, 9.000000, 1.853995
-21.000000, 9.500000, 1.885624
-21.000000, 10.000000, 1.919744
-21.000000, 10.500000, 1.956432
-21.000000, 11.000000, 1.995765
-21.000000, 11.500000, 2.037819
-21.000000, 12.000000, 2.082668
-21.000000, 12.500000, 2.130382
-21.000000, 13.000000, 2.181031
-21.000000, 13.500000, 2.234681
-21.000000, 14.000000, 2.291396
-21.000000, 14.500000, 2.351236
-21.000000, 15.000000, 2.41426
-21.000000, 15.500000, 2.480523
-21.000000, 16.000000, 2.550077
-21.000000, 16.500000, 2.622972
-21.000000, 17.000000, 2.699255
-21.000000, 17.500000, 2.778969
-21.000000, 18.000000, 2.862158
-21.000000, 18.500000, 2.94886
-21.000000, 19.000000, 3.039111
-21.000000, 19.500000, 3.132947
-21.000000, 20.000000, 3.2304
-21.000000, 20.500000, 3.3315
-21.000000, 21.000000, 3.436275
-21.000000, 21.500000, 3.544753
-21.000000, 22.000000, 3.65696
-21.000000, 22.500000, 3.772917
-21.000000, 23.000000, 3.892649
-21.000000, 23.500000, 4.016176
-21.000000, 24.000000, 4.143519
-21.000000, 24.500000, 4.274695
-21.000000, 25.000000, 4.409725
-21.000000, 25.500000, 4.548625
-21.000000, 26.000000, 4.691412
-21.000000, 26.500000, 4.838103
-21.000000, 27.000000, 4.988714
-21.000000, 27.500000, 5.14326
-21.000000, 28.000000, 5.301757
-21.000000, 28.500000, 5.464221
-21.000000, 29.000000, 5.630666
-21.000000, 29.500000, 5.801109
-21.000000, 30.000000, 5.975565
-21.000000, 30.500000, 6.154049
-21.000000, 31.000000, 6.336578
-21.000000, 31.500000, 6.523167
-21.000000, 32.000000, 6.713835
-21.000000, 32.500000, 6.908599
-21.000000, 33.000000, 7.107475
-21.000000, 33.500000, 7.310484
-21.000000, 34.000000, 7.517643
-21.000000, 34.500000, 7.728973
-21.000000, 35.000000, 7.944496
-21.000000, 35.500000, 8.164231
-21.000000, 36.000000, 8.388203
-21.000000, 36.500000, 8.616433
-21.000000, 37.000000, 8.848948
-21.000000, 37.500000, 9.085772
-21.000000, 38.000000, 9.326931
-21.000000, 38.500000, 9.572455
-21.000000, 39.000000, 9.822371
-21.000000, 39.500000, 10.076709
-21.000000, 40.000000, 10.335502
-21.000000, 40.500000, 10.598782
-21.000000, 41.000000, 10.866584
-21.000000, 41.500000, 11.138943
-21.000000, 42.000000, 11.415896
-21.000000, 42.500000, 11.697483
-20.500000, -42.500000, 11.602594
-20.500000, -42.000000, 11.319577
-20.500000, -41.500000, 11.041209
-20.500000, -41.000000, 10.767456
-20.500000, -40.500000, 10.49828
-20.500000, -40.000000, 10.233649
-20.500000, -39.500000, 9.973531
-20.500000, -39.000000, 9.717896
-20.500000, -38.500000, 9.466714
-20.500000, -38.000000, 9.219959
-20.500000, -37.500000, 8.977604
-20.500000, -37.000000, 8.739624
-20.500000, -36.500000, 8.505996
-20.500000, -36.000000, 8.276699
-20.500000, -35.500000, 8.05171
-20.500000, -35.000000, 7.831011
-20.500000, -34.500000, 7.614582
-20.500000, -34.000000, 7.402405
-20.500000, -33.500000, 7.194465
-20.500000, -33.000000, 6.990745
-20.500000, -32.500000, 6.791231
-20.500000, -32.000000, 6.595907
-20.500000, -31.500000, 6.404761
-20.500000, -31.000000, 6.217781
-20.500000, -30.500000, 6.034953
-20.500000, -30.000000, 5.856265
-20.500000, -29.500000, 5.681708
-20.500000, -29.000000, 5.511269
-20.500000, -28.500000, 5.344938
-20.500000, -28.000000, 5.182704
-20.500000, -27.500000, 5.024557
-20.500000, -27.000000, 4.870485
-20.500000, -26.500000, 4.720477
-20.500000, -26.000000, 4.574523
-20.500000, -25.500000, 4.432608
-20.500000, -25.000000, 4.294722
-20.500000, -24.500000, 4.16085
-20.500000, -24.000000, 4.030977
-20.500000, -23.500000, 3.905088
-20.500000, -23.000000, 3.783164
-20.500000, -22.500000, 3.665188
-20.500000, -22.000000, 3.551137
-20.500000, -21.500000, 3.440989
-20.500000, -21.000000, 3.334718
-20.500000, -20.500000, 3.232296
-20.500000, -20.000000, 3.133693
-20.500000, -19.500000, 3.038875
-20.500000, -19.000000, 2.947805
-20.500000, -18.500000, 2.860442
-20.500000, -18.000000, 2.776741
-20.500000, -17.500000, 2.696655
-20.500000, -17.000000, 2.62013
-20.500000, -16.500000, 2.54711
-20.500000, -16.000000, 2.477532
-20.500000, -15.500000, 2.411332
-20.500000, -15.000000, 2.348436
-20.500000, -14.500000, 2.288771
-20.500000, -14.000000, 2.232254
-20.500000, -13.500000, 2.178801
-20.500000, -13.000000, 2.128323
-20.500000, -12.500000, 2.080724
-20.500000, -12.000000, 2.035908
-20.500000, -11.500000, 1.993774
-20.500000, -11.000000, 1.954219
-20.500000, -10.500000, 1.917137
-20.500000, -10.000000, 1.882423
-20.500000, -9.500000, 1.84997
-20.500000, -9.000000, 1.819673
-20.500000, -8.500000, 1.79143
-20.500000, -8.000000, 1.765143
-20.500000, -7.500000, 1.740718
-20.500000, -7.000000, 1.718067
-20.500000, -6.500000, 1.697109
-20.500000, -6.000000, 1.677771
-20.500000, -5.500000, 1.659991
-20.500000, -5.000000, 1.643712
-20.500000, -4.500000, 1.62889
-20.500000, -4.000000, 1.615487
-20.500000, -3.500000, 1.603475
-20.500000, -3.000000, 1.592832
-20.500000, -2.500000, 1.583543
-20.500000, -2.000000, 1.575599
-20.500000, -1.500000, 1.568996
-20.500000, -1.000000, 1.563733
-20.500000, -0.500000, 1.559815
-20.500000, 0.000000, 1.557252
-20.500000, 0.500000, 1.556055
-20.500000, 1.000000, 1.556243
-20.500000, 1.500000, 1.55784
-20.500000, 2.000000, 1.560873
-20.500000, 2.500000, 1.565377
-20.500000, 3.000000, 1.571393
-20.500000, 3.500000, 1.578965
-20.500000, 4.000000, 1.588146
-20.500000, 4.500000, 1.598993
-20.500000, 5.000000, 1.611568
-20.500000, 5.500000, 1.625938
-20.500000, 6.000000, 1.642173
-20.500000, 6.500000, 1.660349
-20.500000, 7.000000, 1.680541
-20.500000, 7.500000, 1.70283
-20.500000, 8.000000, 1.727296
-20.500000, 8.500000, 1.754023
-20.500000, 9.000000, 1.783091
-20.500000, 9.500000, 1.814583
-20.500000, 10.000000, 1.84858
-20.500000, 10.500000, 1.885164
-20.500000, 11.000000, 1.924412
-20.500000, 11.500000, 1.966403
-20.500000, 12.000000, 2.011209
-20.500000, 12.500000, 2.058905
-20.500000, 13.000000, 2.109559
-20.500000, 13.500000, 2.163238
-20.500000, 14.000000, 2.220007
-20.500000, 14.500000, 2.279927
-20.500000, 15.000000, 2.343055
-20.500000, 15.500000, 2.409447
-20.500000, 16.000000, 2.479155
-20.500000, 16.500000, 2.552228
-20.500000, 17.000000, 2.628713
-20.500000, 17.500000, 2.708652
-20.500000, 18.000000, 2.792087
-20.500000, 18.500000, 2.879056
-20.500000, 19.000000, 2.969596
-20.500000, 19.500000, 3.063739
-20.500000, 20.000000, 3.161516
-20.500000, 20.500000, 3.262958
-20.500000, 21.000000, 3.368092
-20.500000, 21.500000, 3.476943
-20.500000, 22.000000, 3.589536
-20.500000, 22.500000, 3.705892
-20.500000, 23.000000, 3.826034
-20.500000, 23.500000, 3.949981
-20.500000, 24.000000, 4.077752
-20.500000, 24.500000, 4.209366
-20.500000, 25.000000, 4.344838
-20.500000, 25.500000, 4.484187
-20.500000, 26.000000, 4.627428
-20.500000, 26.500000, 4.774576
-20.500000, 27.000000, 4.925646
-20.500000, 27.500000, 5.080653
-20.500000, 28.000000, 5.239612
-20.500000, 28.500000, 5.402538
-20.500000, 29.000000, 5.569443
-20.500000, 29.500000, 5.740345
-20.500000, 30.000000, 5.915256
-20.500000, 30.500000, 6.094193
-20.500000, 31.000000, 6.277171
-20.500000, 31.500000, 6.464205
-20.500000, 32.000000, 6.655312
-20.500000, 32.500000, 6.850508
-20.500000, 33.000000, 7.049811
-20.500000, 33.500000, 7.253239
-20.500000, 34.000000, 7.460811
-20.500000, 34.500000, 7.672546
-20.500000, 35.000000, 7.888465
-20.500000, 35.500000, 8.108588
-20.500000, 36.000000, 8.332938
-20.500000, 36.500000, 8.561539
-20.500000, 37.000000, 8.794413
-20.500000, 37.500000, 9.031587
-20.500000, 38.000000, 9.273087
-20.500000, 38.500000, 9.51894
-20.500000, 39.000000, 9.769175
-20.500000, 39.500000, 10.023823
-20.500000, 40.000000, 10.282913
-20.500000, 40.500000, 10.54648
-20.500000, 41.000000, 10.814557
-20.500000, 41.500000, 11.08718
-20.500000, 42.000000, 11.364386
-20.500000, 42.500000, 11.646214
-20.000000, -42.500000, 11.556569
-20.000000, -42.000000, 11.273287
-20.000000, -41.500000, 10.994641
-20.000000, -41.000000, 10.720594
-20.000000, -40.500000, 10.451111
-20.000000, -40.000000, 10.186159
-20.000000, -39.500000, 9.925707
-20.000000, -39.000000, 9.669722
-20.000000, -38.500000, 9.418178
-20.000000, -38.000000, 9.171047
-20.000000, -37.500000, 8.928302
-20.000000, -37.000000, 8.689919
-20.000000, -36.500000, 8.455876
-20.000000, -36.000000, 8.226149
-20.000000, -35.500000, 8.00072
-20.000000, -35.000000, 7.779567
-20.000000, -34.500000, 7.562673
-20.000000, -34.000000, 7.35002
-20.000000, -33.500000, 7.141593
-20.000000, -33.000000, 6.937375
-20.000000, -32.500000, 6.737353
-20.000000, -32.000000, 6.541512
-20.000000, -31.500000, 6.349841
-20.000000, -31.000000, 6.162326
-20.000000, -30.500000, 5.978957
-20.000000, -30.000000, 5.799723
-20.000000, -29.500000, 5.624613
-20.000000, -29.000000, 5.453617
-20.000000, -28.500000, 5.286725
-20.000000, -28.000000, 5.123928
-20.000000, -27.500000, 4.965216
-20.000000, -27.000000, 4.810579
-20.000000, -26.500000, 4.660008
-20.000000, -26.000000, 4.513492
-20.000000, -25.500000, 4.371021
-20.000000, -25.000000, 4.232583
-20.000000, -24.500000, 4.098166
-20.000000, -24.000000, 3.967758
-20.000000, -23.500000, 3.841342
-20.000000, -23.000000, 3.718905
-20.000000, -22.500000, 3.600428
-20.000000, -22.000000, 3.485893
-20.000000, -21.500000, 3.375278
-20.000000, -21.000000, 3.268559
-20.000000, -20.500000, 3.16571
-20.000000, -20.000000, 3.066703
-20.000000, -19.500000, 2.971505
-20.000000, -19.000000, 2.880082
-20.000000, -18.500000, 2.792393
-20.000000, -18.000000, 2.708396
-20.000000, -17.500000, 2.628044
-20.000000, -17.000000, 2.551286
-20.000000, -16.500000, 2.478065
-20.000000, -16.000000, 2.408321
-20.000000, -15.500000, 2.341988
-20.000000, -15.000000, 2.278995
-20.000000, -14.500000, 2.219266
-20.000000, -14.000000, 2.162719
-20.000000, -13.500000, 2.10927
-20.000000, -13.000000, 2.058827
-20.000000, -12.500000, 2.011294
-20.000000, -12.000000, 1.966572
-20.000000, -11.500000, 1.924556
-20.000000, -11.000000, 1.885142
-20.000000, -10.500000, 1.84822
-20.000000, -10.000000, 1.81368
-20.000000, -9.500000, 1.781412
-20.000000, -9.000000, 1.751307
-20.000000, -8.500000, 1.723258
-20.000000, -8.000000, 1.697163
-20.000000, -7.500000, 1.672924
-20.000000, -7.000000, 1.650448
-20.000000, -6.500000, 1.629652
-20.000000, -6.000000, 1.610462
-20.000000, -5.500000, 1.592811
-20.000000, -5.000000, 1.576644
-20.000000, -4.500000, 1.561915
-20.000000, -4.000000, 1.548587
-20.000000, -3.500000, 1.536632
-20.000000, -3.000000, 1.526031
-20.000000, -2.500000, 1.51677
-20.000000, -2.000000, 1.508839
-20.000000, -1.500000, 1.502237
-20.000000, -1.000000, 1.496963
-20.000000, -0.500000, 1.493022
-20.000000, 0.000000, 1.490422
-20.000000, 0.500000, 1.489176
-20.000000, 1.000000, 1.489301
-20.000000, 1.500000, 1.490821
-20.000000, 2.000000, 1.493764
-20.000000, 2.500000, 1.498165
-20.000000, 3.000000, 1.504063
-20.000000, 3.500000, 1.511506
-20.000000, 4.000000, 1.520546
-20.000000, 4.500000, 1.531243
-20.000000, 5.000000, 1.543661
-20.000000, 5.500000, 1.557868
-20.000000, 6.000000, 1.573937
-20.000000, 6.500000, 1.591947
-20.000000, 7.000000, 1.611975
-20.000000, 7.500000, 1.634106
-20.000000, 8.000000, 1.658421
-20.000000, 8.500000, 1.685006
-20.000000, 9.000000, 1.713945
-20.000000, 9.500000, 1.745323
-20.000000, 10.000000, 1.779224
-20.000000, 10.500000, 1.815728
-20.000000, 11.000000, 1.854918
-20.000000, 11.500000, 1.896871
-20.000000, 12.000000, 1.941664
-20.000000, 12.500000, 1.989369
-20.000000, 13.000000, 2.040056
-20.000000, 13.500000, 2.093795
-20.000000, 14.000000, 2.150647
-20.000000, 14.500000, 2.210676
-20.000000, 15.000000, 2.273939
-20.000000, 15.500000, 2.34049
-20.000000, 16.000000, 2.410382
-20.000000, 16.500000, 2.483663
-20.000000, 17.000000, 2.560378
-20.000000, 17.500000, 2.640571
-20.000000, 18.000000, 2.724281
-20.000000, 18.500000, 2.811546
-20.000000, 19.000000, 2.9024
-20.000000, 19.500000, 2.996877
-20.000000, 20.000000, 3.095006
-20.000000, 20.500000, 3.196815
-20.000000, 21.000000, 3.30233
-20.000000, 21.500000, 3.411577
-20.000000, 22.000000, 3.524578
-20.000000, 22.500000, 3.641354
-20.000000, 23.000000, 3.761926
-20.000000, 23.500000, 3.886311
-20.000000, 24.000000, 4.014529
-20.000000, 24.500000, 4.146596
-20.000000, 25.000000, 4.282527
-20.000000, 25.500000, 4.422339
-20.000000, 26.000000, 4.566047
-20.000000, 26.500000, 4.713664
-20.000000, 27.000000, 4.865204
-20.000000, 27.500000, 5.020682
-20.000000, 28.000000, 5.180111
-20.000000, 28.500000, 5.343506
-20.000000, 29.000000, 5.510879
-20.000000, 29.500000, 5.682244
-20.000000, 30.000000, 5.857616
-20.000000, 30.500000, 6.037009
-20.000000, 31.000000, 6.220438
-20.000000, 31.500000, 6.407917
-20.000000, 32.000000, 6.599463
-20.000000, 32.500000, 6.795092
-20.000000, 33.000000, 6.99482
-20.000000, 33.500000, 7.198666
-20.000000, 34.000000, 7.406647
-20.000000, 34.500000, 7.618783
-20.000000, 35.000000, 7.835094
-20.000000, 35.500000, 8.0556
-20.000000, 36.000000, 8.280323
-20.000000, 36.500000, 8.509286
-20.000000, 37.000000, 8.742514
-20.000000, 37.500000, 8.98003
-20.000000, 38.000000, 9.221861
-20.000000, 38.500000, 9.468035
-20.000000, 39.000000, 9.71858
-20.000000, 39.500000, 9.973526
-20.000000, 40.000000, 10.232904
-20.000000, 40.500000, 10.496746
-20.000000, 41.000000, 10.765088
-20.000000, 41.500000, 11.037963
-20.000000, 42.000000, 11.31541
-20.000000, 42.500000, 11.597467
-19.500000, -42.500000, 11.513072
-19.500000, -42.000000, 11.229543
-19.500000, -41.500000, 10.950635
-19.500000, -41.000000, 10.676312
-19.500000, -40.500000, 10.406539
-19.500000, -40.000000, 10.141282
-19.500000, -39.500000, 9.880509
-19.500000, -39.000000, 9.624191
-19.500000, -38.500000, 9.372299
-19.500000, -38.000000, 9.124805
-19.500000, -37.500000, 8.881683
-19.500000, -37.000000, 8.64291
-19.500000, -36.500000, 8.408463
-19.500000, -36.000000, 8.178319
-19.500000, -35.500000, 7.952458
-19.500000, -35.000000, 7.730861
-19.500000, -34.500000, 7.51351
-19.500000, -34.000000, 7.300388
-19.500000, -33.500000, 7.09148
-19.500000, -33.000000, 6.886769
-19.500000, -32.500000, 6.686243
-19.500000, -32.000000, 6.489889
-19.500000, -31.500000, 6.297693
-19.500000, -31.000000, 6.109646
-19.500000, -30.500000, 5.925735
-19.500000, -30.000000, 5.745951
-19.500000, -29.500000, 5.570285
-19.500000, -29.000000, 5.398726
-19.500000, -28.500000, 5.231267
-19.500000, -28.000000, 5.067899
-19.500000, -27.500000, 4.908612
-19.500000, -27.000000, 4.7534
-19.500000, -26.500000, 4.602252
-19.500000, -26.000000, 4.455161
-19.500000, -25.500000, 4.312116
-19.500000, -25.000000, 4.173109
-19.500000, -24.500000, 4.038128
-19.500000, -24.000000, 3.907162
-19.500000, -23.500000, 3.780198
-19.500000, -23.000000, 3.657222
-19.500000, -22.500000, 3.538219
-19.500000, -22.000000, 3.423171
-19.500000, -21.500000, 3.312058
-19.500000, -21.000000, 3.20486
-19.500000, -20.500000, 3.101552
-19.500000, -20.000000, 3.002107
-19.500000, -19.500000, 2.906495
-19.500000, -19.000000, 2.814681
-19.500000, -18.500000, 2.72663
-19.500000, -18.000000, 2.642299
-19.500000, -17.500000, 2.561643
-19.500000, -17.000000, 2.484612
-19.500000, -16.500000, 2.411151
-19.500000, -16.000000, 2.341201
-19.500000, -15.500000, 2.274696
-19.500000, -15.000000, 2.211566
-19.500000, -14.500000, 2.151735
-19.500000, -14.000000, 2.095121
-19.500000, -13.500000, 2.041639
-19.500000, -13.000000, 1.991195
-19.500000, -12.500000, 1.943693
-19.500000, -12.000000, 1.899031
-19.500000, -11.500000, 1.857104
-19.500000, -11.000000, 1.8178
-19.500000, -10.500000, 1.78101
-19.500000, -10.000000, 1.746618
-19.500000, -9.500000, 1.714511
-19.500000, -9.000000, 1.684575
-19.500000, -8.500000, 1.656699
-19.500000, -8.000000, 1.630776
-19.500000, -7.500000, 1.606703
-19.500000, -7.000000, 1.584386
-19.500000, -6.500000, 1.563736
-19.500000, -6.000000, 1.544677
-19.500000, -5.500000, 1.527141
-19.500000, -5.000000, 1.511071
-19.500000, -4.500000, 1.496422
-19.500000, -4.000000, 1.483157
-19.500000, -3.500000, 1.471251
-19.500000, -3.000000, 1.460684
-19.500000, -2.500000, 1.451444
-19.500000, -2.000000, 1.443524
-19.500000, -1.500000, 1.436922
-19.500000, -1.000000, 1.431638
-19.500000, -0.500000, 1.427677
-19.500000, 0.000000, 1.425046
-19.500000, 0.500000, 1.423758
-19.500000, 1.000000, 1.42383
-19.500000, 1.500000, 1.425283
-19.500000, 2.000000, 1.428146
-19.500000, 2.500000, 1.432454
-19.500000, 3.000000, 1.438248
-19.500000, 3.500000, 1.445575
-19.500000, 4.000000, 1.454489
-19.500000, 4.500000, 1.465052
-19.500000, 5.000000, 1.477328
-19.500000, 5.500000, 1.49139
-19.500000, 6.000000, 1.507312
-19.500000, 6.500000, 1.525175
-19.500000, 7.000000, 1.54506
-19.500000, 7.500000, 1.567053
-19.500000, 8.000000, 1.59124
-19.500000, 8.500000, 1.617707
-19.500000, 9.000000, 1.646542
-19.500000, 9.500000, 1.677832
-19.500000, 10.000000, 1.711661
-19.500000, 10.500000, 1.748114
-19.500000, 11.000000, 1.787274
-19.500000, 11.500000, 1.829219
-19.500000, 12.000000, 1.874027
-19.500000, 12.500000, 1.921771
-19.500000, 13.000000, 1.972524
-19.500000, 13.500000, 2.026351
-19.500000, 14.000000, 2.083319
-19.500000, 14.500000, 2.143489
-19.500000, 15.000000, 2.206917
-19.500000, 15.500000, 2.273659
-19.500000, 16.000000, 2.343765
-19.500000, 16.500000, 2.417284
-19.500000, 17.000000, 2.494261
-19.500000, 17.500000, 2.574737
-19.500000, 18.000000, 2.658751
-19.500000, 18.500000, 2.74634
-19.500000, 19.000000, 2.837537
-19.500000, 19.500000, 2.932373
-19.500000, 20.000000, 3.030879
-19.500000, 20.500000, 3.13308
-19.500000, 21.000000, 3.239001
-19.500000, 21.500000, 3.348666
-19.500000, 22.000000, 3.462097
-19.500000, 22.500000, 3.579313
-19.500000, 23.000000, 3.700334
-19.500000, 23.500000, 3.825176
-19.500000, 24.000000, 3.953857
-19.500000, 24.500000, 4.086393
-19.500000, 25.000000, 4.222798
-19.500000, 25.500000, 4.363086
-19.500000, 26.000000, 4.507272
-19.500000, 26.500000, 4.655368
-19.500000, 27.000000, 4.807389
-19.500000, 27.500000, 4.963346
-19.500000, 28.000000, 5.123253
-19.500000, 28.500000, 5.287122
-19.500000, 29.000000, 5.454967
-19.500000, 29.500000, 5.6268
-19.500000, 30.000000, 5.802636
-19.500000, 30.500000, 5.982487
-19.500000, 31.000000, 6.166367
-19.500000, 31.500000, 6.354292
-19.500000, 32.000000, 6.546276
-19.500000, 32.500000, 6.742336
-19.500000, 33.000000, 6.942487
-19.500000, 33.500000, 7.146746
-19.500000, 34.000000, 7.355132
-19.500000, 34.500000, 7.567664
-19.500000, 35.000000, 7.78436
-19.500000, 35.500000, 8.005242
-19.500000, 36.000000, 8.230331
-19.500000, 36.500000, 8.459649
-19.500000, 37.000000, 8.69322
-19.500000, 37.500000, 8.93107
-19.500000, 38.000000, 9.173223
-19.500000, 38.500000, 9.419707
-19.500000, 39.000000, 9.670551
-19.500000, 39.500000, 9.925784
-19.500000, 40.000000, 10.185438
-19.500000, 40.500000, 10.449544
-19.500000, 41.000000, 10.718137
-19.500000, 41.500000, 10.991252
-19.500000, 42.000000, 11.268926
-19.500000, 42.500000, 11.551198
-19.000000, -42.500000, 11.472053
-19.000000, -42.000000, 11.188295
-19.000000, -41.500000, 10.909144
-19.000000, -41.000000, 10.634563
-19.000000, -40.500000, 10.364517
-19.000000, -40.000000, 10.098972
-19.000000, -39.500000, 9.837897
-19.000000, -39.000000, 9.581261
-19.000000, -38.500000, 9.329036
-19.000000, -38.000000, 9.081195
-19.000000, -37.500000, 8.837712
-19.000000, -37.000000, 8.598563
-19.000000, -36.500000, 8.363724
-19.000000, -36.000000, 8.133175
-19.000000, -35.500000, 7.906895
-19.000000, -35.000000, 7.684866
-19.000000, -34.500000, 7.467068
-19.000000, -34.000000, 7.253487
-19.000000, -33.500000, 7.044105
-19.000000, -33.000000, 6.83891
-19.000000, -32.500000, 6.637886
-19.000000, -32.000000, 6.441023
-19.000000, -31.500000, 6.248307
-19.000000, -31.000000, 6.059729
-19.000000, -30.500000, 5.875278
-19.000000, -30.000000, 5.694944
-19.000000, -29.500000, 5.51872
-19.000000, -29.000000, 5.346596
-19.000000, -28.500000, 5.178565
-19.000000, -28.000000, 5.014619
-19.000000, -27.500000, 4.854751
-19.000000, -27.000000, 4.698953
-19.000000, -26.500000, 4.547217
-19.000000, -26.000000, 4.399538
-19.000000, -25.500000, 4.255905
-19.000000, -25.000000, 4.116312
-19.000000, -24.500000, 3.980748
-19.000000, -24.000000, 3.849204
-19.000000, -23.500000, 3.72167
-19.000000, -23.000000, 3.598131
-19.000000, -22.500000, 3.478576
-19.000000, -22.000000, 3.362988
-19.000000, -21.500000, 3.25135
-19.000000, -21.000000, 3.143642
-19.000000, -20.500000, 3.039842
-19.000000, -20.000000, 2.939925
-19.000000, -19.500000, 2.843863
-19.000000, -19.000000, 2.751623
-19.000000, -18.500000, 2.663171
-19.000000, -18.000000, 2.578466
-19.000000, -17.500000, 2.497467
-19.000000, -17.000000, 2.420122
-19.000000, -16.500000, 2.346381
-19.000000, -16.000000, 2.276183
-19.000000, -15.500000, 2.209465
-19.000000, -15.000000, 2.146156
-19.000000, -14.500000, 2.086182
-19.000000, -14.000000, 2.029461
-19.000000, -13.500000, 1.975905
-19.000000, -13.000000, 1.925423
-19.000000, -12.500000, 1.877915
-19.000000, -12.000000, 1.833277
-19.000000, -11.500000, 1.791402
-19.000000, -11.000000, 1.752177
-19.000000, -10.500000, 1.715487
-19.000000, -10.000000, 1.681214
-19.000000, -9.500000, 1.64924
-19.000000, -9.000000, 1.619448
-19.000000, -8.500000, 1.591721
-19.000000, -8.000000, 1.565948
-19.000000, -7.500000, 1.542022
-19.000000, -7.000000, 1.519843
-19.000000, -6.500000, 1.499322
-19.000000, -6.000000, 1.480377
-19.000000, -5.500000, 1.46294
-19.000000, -5.000000, 1.446953
-19.000000, -4.500000, 1.432371
-19.000000, -4.000000, 1.419158
-19.000000, -3.500000, 1.40729
-19.000000, -3.000000, 1.39675
-19.000000, -2.500000, 1.387526
-19.000000, -2.000000, 1.379615
-19.000000, -1.500000, 1.373012
-19.000000, -1.000000, 1.36772
-19.000000, -0.500000, 1.363743
-19.000000, 0.000000, 1.361087
-19.000000, 0.500000, 1.359765
-19.000000, 1.000000, 1.359791
-19.000000, 1.500000, 1.361188
-19.000000, 2.000000, 1.363983
-19.000000, 2.500000, 1.368212
-19.000000, 3.000000, 1.373914
-19.000000, 3.500000, 1.38114
-19.000000, 4.000000, 1.389944
-19.000000, 4.500000, 1.400388
-19.000000, 5.000000, 1.412541
-19.000000, 5.500000, 1.426476
-19.000000, 6.000000, 1.442271
-19.000000, 6.500000, 1.460008
-19.000000, 7.000000, 1.479772
-19.000000, 7.500000, 1.501651
-19.000000, 8.000000, 1.525733
-19.000000, 8.500000, 1.552109
-19.000000, 9.000000, 1.580866
-19.000000, 9.500000, 1.612095
-19.000000, 10.000000, 1.645882
-19.000000, 10.500000, 1.682314
-19.000000, 11.000000, 1.721473
-19.000000, 11.500000, 1.763442
-19.000000, 12.000000, 1.808296
-19.000000, 12.500000, 1.856113
-19.000000, 13.000000, 1.906962
-19.000000, 13.500000, 1.960912
-19.000000, 14.000000, 2.018028
-19.000000, 14.500000, 2.078371
-19.000000, 15.000000, 2.141997
-19.000000, 15.500000, 2.208962
-19.000000, 16.000000, 2.279315
-19.000000, 16.500000, 2.353104
-19.000000, 17.000000, 2.430372
-19.000000, 17.500000, 2.511161
-19.000000, 18.000000, 2.595509
