-0.500000, -0.500000, 0.002682
-0.500000, 0.000000, 0.001346
-0.500000, 0.500000, 0.002676
-0.500000, 1.000000, 0.006675
-0.500000, 1.500000, 0.013347
-0.500000, 2.000000, 0.022699
-0.500000, 2.500000, 0.034741
-0.500000, 3.000000, 0.049483
-0.500000, 3.500000, 0.066941
-0.500000, 4.000000, 0.087129
-0.500000, 4.500000, 0.110064
-0.500000, 5.000000, 0.135765
-0.500000, 5.500000, 0.164249
-0.500000, 6.000000, 0.195536
-0.500000, 6.500000, 0.229646
-0.500000, 7.000000, 0.266598
-0.500000, 7.500000, 0.306413
-0.500000, 8.000000, 0.349109
-0.500000, 8.500000, 0.394705
-0.500000, 9.000000, 0.443219
-0.500000, 9.500000, 0.49467
-0.500000, 10.000000, 0.549073
-0.500000, 10.500000, 0.606445
-0.500000, 11.000000, 0.6668
-0.500000, 11.500000, 0.730154
-0.500000, 12.000000, 0.796519
-0.500000, 12.500000, 0.86591
-0.500000, 13.000000, 0.938337
-0.500000, 13.500000, 1.013812
-0.500000, 14.000000, 1.092348
-0.500000, 14.500000, 1.173953
-0.500000, 15.000000, 1.258638
-0.500000, 15.500000, 1.346412
-0.500000, 16.000000, 1.437286
-0.500000, 16.500000, 1.531269
-0.500000, 17.000000, 1.628369
-0.500000, 17.500000, 1.728596
-0.500000, 18.000000, 1.831959
-0.500000, 18.500000, 1.938466
-0.500000, 19.000000, 2.048129
-0.500000, 19.500000, 2.160955
-0.500000, 20.000000, 2.276955
-0.500000, 20.500000, 2.396139
-0.500000, 21.000000, 2.518516
-0.500000, 21.500000, 2.644099
-0.500000, 22.000000, 2.772898
-0.500000, 22.500000, 2.904924
-0.500000, 23.000000, 3.04019
-0.500000, 23.500000, 3.178708
-0.500000, 24.000000, 3.320492
-0.500000, 24.500000, 3.465554
-0.500000, 25.000000, 3.61391
-0.500000, 25.500000, 3.765573
-0.500000, 26.000000, 3.92056
-0.500000, 26.500000, 4.078885
-0.500000, 27.000000, 4.240567
-0.500000, 27.500000, 4.405621
-0.500000, 28.000000, 4.574067
-0.500000, 28.500000, 4.745922
-0.500000, 29.000000, 4.921206
-0.500000, 29.500000, 5.099938
-0.500000, 30.000000, 5.28214
-0.500000, 30.500000, 5.467833
-0.500000, 31.000000, 5.657039
-0.500000, 31.500000, 5.849781
-0.500000, 32.000000, 6.046083
-0.500000, 32.500000, 6.245969
-0.500000, 33.000000, 6.449465
-0.500000, 33.500000, 6.656596
-0.500000, 34.000000, 6.86739
-0.500000, 34.500000, 7.081875
-0.500000, 35.000000, 7.300079
-0.500000, 35.500000, 7.522032
-0.500000, 36.000000, 7.747764
-0.500000, 36.500000, 7.977308
-0.500000, 37.000000, 8.210695
-0.500000, 37.500000, 8.44796
-0.500000, 38.000000, 8.689136
-0.500000, 38.500000, 8.93426
-0.500000, 39.000000, 9.183367
-0.500000, 39.500000, 9.436497
-0.500000, 40.000000, 9.693688
-0.500000, 40.500000, 9.95498
-0.500000, 41.000000, 10.220414
-0.500000, 41.500000, 10.490034
-0.500000, 42.000000, 10.763884
-0.500000, 42.500000, 11.042008
0.000000, -42.500000, 11.067231
0.000000, -42.000000, 10.788889
0.000000, -41.500000, 10.514823
0.000000, -41.000000, 10.244989
0.000000, -40.500000, 9.979342
0.000000, -40.000000, 9.717839
0.000000, -39.500000, 9.460438
0.000000, -39.000000, 9.2071
0.000000, -38.500000, 8.957784
0.000000, -38.000000, 8.712452
0.000000, -37.500000, 8.471068
0.000000, -37.000000, 8.233596
0.000000, -36.500000, 8.0
0.000000, -36.000000, 7.770248
0.000000, -35.500000, 7.544305
0.000000, -35.000000, 7.322141
0.000000, -34.500000, 7.103725
0.000000, -34.000000, 6.889026
0.000000, -33.500000, 6.678015
0.000000, -33.000000, 6.470665
0.000000, -32.500000, 6.266947
0.000000, -32.000000, 6.066836
0.000000, -31.500000, 5.870306
0.000000, -31.000000, 5.677332
0.000000, -30.500000, 5.487889
0.000000, -30.000000, 5.301955
0.000000, -29.500000, 5.119507
0.000000, -29.000000, 4.940523
0.000000, -28.500000, 4.764982
0.000000, -28.000000, 4.592864
0.000000, -27.500000, 4.424149
0.000000, -27.000000, 4.258818
0.000000, -26.500000, 4.096853
0.000000, -26.000000, 3.938236
0.000000, -25.500000, 3.782951
0.000000, -25.000000, 3.630981
0.000000, -24.500000, 3.48231
0.000000, -24.000000, 3.336924
0.000000, -23.500000, 3.194807
0.000000, -23.000000, 3.055947
0.000000, -22.500000, 2.92033
0.000000, -22.000000, 2.787942
0.000000, -21.500000, 2.658773
0.000000, -21.000000, 2.532811
0.000000, -20.500000, 2.410043
0.000000, -20.000000, 2.290461
0.000000, -19.500000, 2.174052
0.000000, -19.000000, 2.060809
0.000000, -18.500000, 1.95072
0.000000, -18.000000, 1.843777
0.000000, -17.500000, 1.739971
0.000000, -17.000000, 1.639294
0.000000, -16.500000, 1.541736
0.000000, -16.000000, 1.44729
0.000000, -15.500000, 1.355947
0.000000, -15.000000, 1.267698
0.000000, -14.500000, 1.182535
0.000000, -14.000000, 1.10045
0.000000, -13.500000, 1.021433
0.000000, -13.000000, 0.945474
0.000000, -12.500000, 0.872565
0.000000, -12.000000, 0.802694
0.000000, -11.500000, 0.735852
0.000000, -11.000000, 0.672025
0.000000, -10.500000, 0.611202
0.000000, -10.000000, 0.553369
0.000000, -9.500000, 0.498513
0.000000, -9.000000, 0.446619
0.000000, -8.500000, 0.397672
0.000000, -8.000000, 0.351655
0.000000, -7.500000, 0.308551
0.000000, -7.000000, 0.268344
0.000000, -6.500000, 0.231014
0.000000, -6.000000, 0.196545
0.000000, -5.500000, 0.164917
0.000000, -5.000000, 0.136113
0.000000, -4.500000, 0.110114
0.000000, -4.000000, 0.086905
0.000000, -3.500000, 0.066469
0.000000, -3.000000, 0.04879
0.000000, -2.500000, 0.033856
0.000000, -2.000000, 0.021654
0.000000, -1.500000, 0.012174
0.000000, -1.000000, 0.005409
0.000000, -0.500000, 0.001352
0.000000, 0.000000, 0.0
0.000000, 0.500000, 0.001352
0.000000, 1.000000, 0.005409
0.000000, 1.500000, 0.012174
0.000000, 2.000000, 0.021654
0.000000, 2.500000, 0.033855
0.000000, 3.000000, 0.048788
0.000000, 3.500000, 0.066463
0.000000, 4.000000, 0.086894
0.000000, 4.500000, 0.110095
0.000000, 5.000000, 0.136081
0.000000, 5.500000, 0.164868
0.000000, 6.000000, 0.196472
0.000000, 6.500000, 0.23091
0.000000, 7.000000, 0.268199
0.000000, 7.500000, 0.308356
0.000000, 8.000000, 0.351397
0.000000, 8.500000, 0.39734
0.000000, 9.000000, 0.446199
0.000000, 9.500000, 0.497991
0.000000, 10.000000, 0.552731
0.000000, 10.500000, 0.610432
0.000000, 11.000000, 0.671109
0.000000, 11.500000, 0.734775
0.000000, 12.000000, 0.801442
0.000000, 12.500000, 0.871121
0.000000, 13.000000, 0.943826
0.000000, 13.500000, 1.019565
0.000000, 14.000000, 1.098351
0.000000, 14.500000, 1.180193
0.000000, 15.000000, 1.265101
0.000000, 15.500000, 1.353085
0.000000, 16.000000, 1.444154
0.000000, 16.500000, 1.538318
0.000000, 17.000000, 1.635585
0.000000, 17.500000, 1.735966
0.000000, 18.000000, 1.839469
0.000000, 18.500000, 1.946104
0.000000, 19.000000, 2.055881
0.000000, 19.500000, 2.16881
0.000000, 20.000000, 2.284901
0.000000, 20.500000, 2.404165
0.000000, 21.000000, 2.526611
0.000000, 21.500000, 2.652253
0.000000, 22.000000, 2.7811
0.000000, 22.500000, 2.913166
0.000000, 23.000000, 3.048462
0.000000, 23.500000, 3.187002
0.000000, 24.000000, 3.3288
0.000000, 24.500000, 3.473869
0.000000, 25.000000, 3.622223
0.000000, 25.500000, 3.77388
0.000000, 26.000000, 3.928853
0.000000, 26.500000, 4.087159
0.000000, 27.000000, 4.248816
0.000000, 27.500000, 4.41384
0.000000, 28.000000, 4.582251
0.000000, 28.500000, 4.754067
0.000000, 29.000000, 4.929308
0.000000, 29.500000, 5.107994
0.000000, 30.000000, 5.290146
0.000000, 30.500000, 5.475786
0.000000, 31.000000, 5.664936
0.000000, 31.500000, 5.857619
0.000000, 32.000000, 6.05386
0.000000, 32.500000, 6.253683
0.000000, 33.000000, 6.457113
0.000000, 33.500000, 6.664178
0.000000, 34.000000, 6.874904
0.000000, 34.500000, 7.089319
0.000000, 35.000000, 7.307452
0.000000, 35.500000, 7.529333
0.000000, 36.000000, 7.754993
0.000000, 36.500000, 7.984463
0.000000, 37.000000, 8.217777
0.000000, 37.500000, 8.454967
0.000000, 38.000000, 8.696069
0.000000, 38.500000, 8.941117
0.000000, 39.000000, 9.19015
0.000000, 39.500000, 9.443205
0.000000, 40.000000, 9.70032
0.000000, 40.500000, 9.961537
0.000000, 41.000000, 10.226897
0.000000, 41.500000, 10.496443
0.000000, 42.000000, 10.770218
0.000000, 42.500000, 11.048269
0.500000, -42.500000, 11.075399
0.500000, -42.000000, 10.797117
0.500000, -41.500000, 10.523113
0.500000, -41.000000, 10.253341
0.500000, -40.500000, 9.987758
0.500000, -40.000000, 9.726319
0.500000, -39.500000, 9.468983
0.500000, -39.000000, 9.21571
0.500000, -38.500000, 8.96646
0.500000, -38.000000, 8.721195
0.500000, -37.500000, 8.479878
0.500000, -37.000000, 8.242473
0.500000, -36.500000, 8.008946
0.500000, -36.000000, 7.779261
0.500000, -35.500000, 7.553387
0.500000, -35.000000, 7.33129
0.500000, -34.500000, 7.112942
0.500000, -34.000000, 6.89831
0.500000, -33.500000, 6.687366
0.500000, -33.000000, 6.480082
0.500000, -32.500000, 6.27643
0.500000, -32.000000, 6.076384
0.500000, -31.500000, 5.879917
0.500000, -31.000000, 5.687005
0.500000, -30.500000, 5.497622
0.500000, -30.000000, 5.311747
0.500000, -29.500000, 5.129355
0.500000, -29.000000, 4.950425
0.500000, -28.500000, 4.774936
0.500000, -28.000000, 4.602866
0.500000, -27.500000, 4.434196
0.500000, -27.000000, 4.268907
0.500000, -26.500000, 4.10698
0.500000, -26.000000, 3.948396
0.500000, -25.500000, 3.793139
0.500000, -25.000000, 3.641192
0.500000, -24.500000, 3.492539
0.500000, -24.000000, 3.347164
0.500000, -23.500000, 3.205053
0.500000, -23.000000, 3.066191
0.500000, -22.500000, 2.930564
0.500000, -22.000000, 2.798159
0.500000, -21.500000, 2.668963
0.500000, -21.000000, 2.542965
0.500000, -20.500000, 2.420152
0.500000, -20.000000, 2.300513
0.500000, -19.500000, 2.184038
0.500000, -19.000000, 2.070716
0.500000, -18.500000, 1.960537
0.500000, -18.000000, 1.853491
0.500000, -17.500000, 1.749569
0.500000, -17.000000, 1.648762
0.500000, -16.500000, 1.551061
0.500000, -16.000000, 1.456457
0.500000, -15.500000, 1.364941
0.500000, -15.000000, 1.276506
0.500000, -14.500000, 1.191141
0.500000, -14.000000, 1.108838
0.500000, -13.500000, 1.029589
0.500000, -13.000000, 0.953384
0.500000, -12.500000, 0.880214
0.500000, -12.000000, 0.810069
0.500000, -11.500000, 0.742939
0.500000, -11.000000, 0.678813
0.500000, -10.500000, 0.61768
0.500000, -10.000000, 0.559529
0.500000, -9.500000, 0.504347
0.500000, -9.000000, 0.452121
0.500000, -8.500000, 0.402837
0.500000, -8.000000, 0.356483
0.500000, -7.500000, 0.313043
0.500000, -7.000000, 0.272502
0.500000, -6.500000, 0.234845
0.500000, -6.000000, 0.200058
0.500000, -5.500000, 0.168124
0.500000, -5.000000, 0.139029
0.500000, -4.500000, 0.112758
0.500000, -4.000000, 0.089295
0.500000, -3.500000, 0.068629
0.500000, -3.000000, 0.050746
0.500000, -2.500000, 0.035634
0.500000, -2.000000, 0.023284
0.500000, -1.500000, 0.013688
0.500000, -1.000000, 0.006838
0.500000, -0.500000, 0.002729
0.500000, 0.000000, 0.001358
0.500000, 0.500000, 0.002724
0.500000, 1.000000, 0.006827
0.500000, 1.500000, 0.013671
0.500000, 2.000000, 0.02326
0.500000, 2.500000, 0.035599
0.500000, 3.000000, 0.050697
0.500000, 3.500000, 0.068564
0.500000, 4.000000, 0.089208
0.500000, 4.500000, 0.112644
0.500000, 5.000000, 0.138882
0.500000, 5.500000, 0.167937
0.500000, 6.000000, 0.199821
0.500000, 6.500000, 0.234551
0.500000, 7.000000, 0.272139
0.500000, 7.500000, 0.3126
0.500000, 8.000000, 0.355949
0.500000, 8.500000, 0.402201
0.500000, 9.000000, 0.451368
0.500000, 9.500000, 0.503465
0.500000, 10.000000, 0.558506
0.500000, 10.500000, 0.616501
0.500000, 11.000000, 0.677465
0.500000, 11.500000, 0.741409
0.500000, 12.000000, 0.808345
0.500000, 12.500000, 0.878284
0.500000, 13.000000, 0.951236
0.500000, 13.500000, 1.027211
0.500000, 14.000000, 1.106221
0.500000, 14.500000, 1.188275
0.500000, 15.000000, 1.273382
0.500000, 15.500000, 1.361552
0.500000, 16.000000, 1.452795
0.500000, 16.500000, 1.54712
0.500000, 17.000000, 1.644537
0.500000, 17.500000, 1.745054
0.500000, 18.000000, 1.848683
0.500000, 18.500000, 1.955432
0.500000, 19.000000, 2.065312
0.500000, 19.500000, 2.178332
0.500000, 20.000000, 2.294504
0.500000, 20.500000, 2.413839
0.500000, 21.000000, 2.536348
0.500000, 21.500000, 2.662041
0.500000, 22.000000, 2.790933
0.500000, 22.500000, 2.923034
0.500000, 23.000000, 3.058358
0.500000, 23.500000, 3.196919
0.500000, 24.000000, 3.33873
0.500000, 24.500000, 3.483805
0.500000, 25.000000, 3.632161
0.500000, 25.500000, 3.783812
0.500000, 26.000000, 3.938775
0.500000, 26.500000, 4.097066
0.500000, 27.000000, 4.258702
0.500000, 27.500000, 4.423703
0.500000, 28.000000, 4.592085
0.500000, 28.500000, 4.763869
0.500000, 29.000000, 4.939075
0.500000, 29.500000, 5.117722
0.500000, 30.000000, 5.299833
0.500000, 30.500000, 5.485429
0.500000, 31.000000, 5.674533
0.500000, 31.500000, 5.867169
0.500000, 32.000000, 6.063359
0.500000, 32.500000, 6.263131
0.500000, 33.000000, 6.466508
0.500000, 33.500000, 6.673519
0.500000, 34.000000, 6.884189
0.500000, 34.500000, 7.098548
0.500000, 35.000000, 7.316624
0.500000, 35.500000, 7.538448
0.500000, 36.000000, 7.76405
0.500000, 36.500000, 7.993462
0.500000, 37.000000, 8.226716
0.500000, 37.500000, 8.463848
0.500000, 38.000000, 8.704891
0.500000, 38.500000, 8.949881
0.500000, 39.000000, 9.198855
0.500000, 39.500000, 9.451851
0.500000, 40.000000, 9.708909
0.500000, 40.500000, 9.970068
0.500000, 41.000000, 10.235371
0.500000, 41.500000, 10.50486
0.500000, 42.000000, 10.77858
0.500000, 42.500000, 11.056575
1.000000, -42.500000, 11.085704
1.000000, -42.000000, 10.807463
1.000000, -41.500000, 10.533501
1.000000, -41.000000, 10.263772
1.000000, -40.500000, 9.998233
1.000000, -40.000000, 9.736839
1.000000, -39.500000, 9.479549
1.000000, -39.000000, 9.226323
1.000000, -38.500000, 8.97712
1.000000, -38.000000, 8.731904
1.000000, -37.500000, 8.490636
1.000000, -37.000000, 8.253281
1.000000, -36.500000, 8.019804
1.000000, -36.000000, 7.79017
1.000000, -35.500000, 7.564346
1.000000, -35.000000, 7.342301
1.000000, -34.500000, 7.124004
1.000000, -34.000000, 6.909424
1.000000, -33.500000, 6.698531
1.000000, -33.000000, 6.491298
1.000000, -32.500000, 6.287697
1.000000, -32.000000, 6.0877
1.000000, -31.500000, 5.891283
1.000000, -31.000000, 5.698419
1.000000, -30.500000, 5.509084
1.000000, -30.000000, 5.323254
1.000000, -29.500000, 5.140907
1.000000, -29.000000, 4.962019
1.000000, -28.500000, 4.786571
1.000000, -28.000000, 4.614539
1.000000, -27.500000, 4.445905
1.000000, -27.000000, 4.280649
1.000000, -26.500000, 4.118751
1.000000, -26.000000, 3.960194
1.000000, -25.500000, 3.804959
1.000000, -25.000000, 3.65303
1.000000, -24.500000, 3.50439
1.000000, -24.000000, 3.359023
1.000000, -23.500000, 3.216915
1.000000, -23.000000, 3.078049
1.000000, -22.500000, 2.942413
1.000000, -22.000000, 2.809991
1.000000, -21.500000, 2.680772
1.000000, -21.000000, 2.554742
1.000000, -20.500000, 2.43189
1.000000, -20.000000, 2.312202
1.000000, -19.500000, 2.195669
1.000000, -19.000000, 2.08228
1.000000, -18.500000, 1.972023
1.000000, -18.000000, 1.864888
1.000000, -17.500000, 1.760866
1.000000, -17.000000, 1.659948
1.000000, -16.500000, 1.562123
1.000000, -16.000000, 1.467383
1.000000, -15.500000, 1.375718
1.000000, -15.000000, 1.287121
1.000000, -14.500000, 1.201581
1.000000, -14.000000, 1.119091
1.000000, -13.500000, 1.039641
1.000000, -13.000000, 0.963223
1.000000, -12.500000, 0.889828
1.000000, -12.000000, 0.819445
1.000000, -11.500000, 0.752067
1.000000, -11.000000, 0.687682
1.000000, -10.500000, 0.626281
1.000000, -10.000000, 0.567853
1.000000, -9.500000, 0.512387
1.000000, -9.000000, 0.459872
1.000000, -8.500000, 0.410296
1.000000, -8.000000, 0.363647
1.000000, -7.500000, 0.319914
1.000000, -7.000000, 0.279082
1.000000, -6.500000, 0.24114
1.000000, -6.000000, 0.206074
1.000000, -5.500000, 0.173872
1.000000, -5.000000, 0.144521
1.000000, -4.500000, 0.118009
1.000000, -4.000000, 0.094323
1.000000, -3.500000, 0.073452
1.000000, -3.000000, 0.055387
1.000000, -2.500000, 0.040117
1.000000, -2.000000, 0.027635
1.000000, -1.500000, 0.017932
1.000000, -1.000000, 0.011003
1.000000, -0.500000, 0.006844
1.000000, 0.000000, 0.005452
1.000000, 0.500000, 0.006826
1.000000, 1.000000, 0.010967
1.000000, 1.500000, 0.017875
1.000000, 2.000000, 0.027555
1.000000, 2.500000, 0.040012
1.000000, 3.000000, 0.055252
1.000000, 3.500000, 0.073282
1.000000, 4.000000, 0.094112
1.000000, 4.500000, 0.11775
1.000000, 5.000000, 0.144208
1.000000, 5.500000, 0.173496
1.000000, 6.000000, 0.205625
1.000000, 6.500000, 0.240609
1.000000, 7.000000, 0.278459
1.000000, 7.500000, 0.319188
1.000000, 8.000000, 0.362807
1.000000, 8.500000, 0.40933
1.000000, 9.000000, 0.458768
1.000000, 9.500000, 0.511133
1.000000, 10.000000, 0.566438
1.000000, 10.500000, 0.624693
1.000000, 11.000000, 0.68591
1.000000, 11.500000, 0.7501
1.000000, 12.000000, 0.817273
1.000000, 12.500000, 0.88744
1.000000, 13.000000, 0.96061
1.000000, 13.500000, 1.036794
1.000000, 14.000000, 1.116002
1.000000, 14.500000, 1.198242
1.000000, 15.000000, 1.283526
1.000000, 15.500000, 1.371861
1.000000, 16.000000, 1.463258
1.000000, 16.500000, 1.557726
1.000000, 17.000000, 1.655275
1.000000, 17.500000, 1.755914
1.000000, 18.000000, 1.859654
1.000000, 18.500000, 1.966504
1.000000, 19.000000, 2.076475
1.000000, 19.500000, 2.189577
1.000000, 20.000000, 2.305822
1.000000, 20.500000, 2.425221
1.000000, 21.000000, 2.547785
1.000000, 21.500000, 2.673527
1.000000, 22.000000, 2.802459
1.000000, 22.500000, 2.934593
1.000000, 23.000000, 3.069944
1.000000, 23.500000, 3.208524
1.000000, 24.000000, 3.350349
1.000000, 24.500000, 3.495434
1.000000, 25.000000, 3.643793
1.000000, 25.500000, 3.795442
1.000000, 26.000000, 3.950399
1.000000, 26.500000, 4.10868
1.000000, 27.000000, 4.270303
1.000000, 27.500000, 4.435285
1.000000, 28.000000, 4.603647
1.000000, 28.500000, 4.775407
1.000000, 29.000000, 4.950586
1.000000, 29.500000, 5.129205
1.000000, 30.000000, 5.311284
1.000000, 30.500000, 5.496847
1.000000, 31.000000, 5.685916
1.000000, 31.500000, 5.878515
1.000000, 32.000000, 6.074668
1.000000, 32.500000, 6.2744
1.000000, 33.000000, 6.477737
1.000000, 33.500000, 6.684707
1.000000, 34.000000, 6.895336
1.000000, 34.500000, 7.109652
1.000000, 35.000000, 7.327686
1.000000, 35.500000, 7.549467
1.000000, 36.000000, 7.775026
1.000000, 36.500000, 8.004394
1.000000, 37.000000, 8.237606
1.000000, 37.500000, 8.474695
1.000000, 38.000000, 8.715695
1.000000, 38.500000, 8.960643
1.000000, 39.000000, 9.209575
1.000000, 39.500000, 9.46253
1.000000, 40.000000, 9.719548
1.000000, 40.500000, 9.980667
1.000000, 41.000000, 10.245931
1.000000, 41.500000, 10.515381
1.000000, 42.000000, 10.789063
1.000000, 42.500000, 11.067022
1.500000, -42.500000, 11.098255
1.500000, -42.000000, 10.820035
1.500000, -41.500000, 10.546095
1.500000, -41.000000, 10.27639
1.500000, -40.500000, 10.010875
1.500000, -40.000000, 9.749507
1.500000, -39.500000, 9.492245
1.500000, -39.000000, 9.239046
1.500000, -38.500000, 8.989873
1.500000, -38.000000, 8.744687
1.500000, -37.500000, 8.50345
1.500000, -37.000000, 8.266127
1.500000, -36.500000, 8.032682
1.500000, -36.000000, 7.803081
1.500000, -35.500000, 7.577292
1.500000, -35.000000, 7.355282
1.500000, -34.500000, 7.137019
1.500000, -34.000000, 6.922474
1.500000, -33.500000, 6.711617
1.500000, -33.000000, 6.504419
1.500000, -32.500000, 6.300853
1.500000, -32.000000, 6.100891
1.500000, -31.500000, 5.904508
1.500000, -31.000000, 5.711679
1.500000, -30.500000, 5.522377
1.500000, -30.000000, 5.33658
1.500000, -29.500000, 5.154265
1.500000, -29.000000, 4.975408
1.500000, -28.500000, 4.799988
1.500000, -28.000000, 4.627984
1.500000, -27.500000, 4.459375
1.500000, -27.000000, 4.294141
1.500000, -26.500000, 4.132264
1.500000, -26.000000, 3.973725
1.500000, -25.500000, 3.818505
1.500000, -25.000000, 3.666587
1.500000, -24.500000, 3.517955
1.500000, -24.000000, 3.372592
1.500000, -23.500000, 3.230483
1.500000, -23.000000, 3.091612
1.500000, -22.500000, 2.955964
1.500000, -22.000000, 2.823527
1.500000, -21.500000, 2.694285
1.500000, -21.000000, 2.568226
1.500000, -20.500000, 2.445338
1.500000, -20.000000, 2.325608
1.500000, -19.500000, 2.209024
1.500000, -19.000000, 2.095575
1.500000, -18.500000, 1.98525
1.500000, -18.000000, 1.878039
1.500000, -17.500000, 1.773931
1.500000, -17.000000, 1.672917
1.500000, -16.500000, 1.574986
1.500000, -16.000000, 1.480129
1.500000, -15.500000, 1.388337
1.500000, -15.000000, 1.299601
1.500000, -14.500000, 1.213913
1.500000, -14.000000, 1.131263
1.500000, -13.500000, 1.051642
1.500000, -13.000000, 0.975042
1.500000, -12.500000, 0.901453
1.500000, -12.000000, 0.830868
1.500000, -11.500000, 0.763277
1.500000, -11.000000, 0.698671
1.500000, -10.500000, 0.63704
1.500000, -10.000000, 0.578375
1.500000, -9.500000, 0.522667
1.500000, -9.000000, 0.469905
1.500000, -8.500000, 0.420078
1.500000, -8.000000, 0.373178
1.500000, -7.500000, 0.329192
1.500000, -7.000000, 0.28811
1.500000, -6.500000, 0.249922
1.500000, -6.000000, 0.214617
1.500000, -5.500000, 0.182183
1.500000, -5.000000, 0.152611
1.500000, -4.500000, 0.12589
1.500000, -4.000000, 0.10201
1.500000, -3.500000, 0.080963
1.500000, -3.000000, 0.062738
1.500000, -2.500000, 0.04733
1.500000, -2.000000, 0.034729
1.500000, -1.500000, 0.024932
1.500000, -1.000000, 0.017932
1.500000, -0.500000, 0.013727
1.500000, 0.000000, 0.012314
1.500000, 0.500000, 0.013691
1.500000, 1.000000, 0.017859
1.500000, 1.500000, 0.02482
1.500000, 2.000000, 0.034576
1.500000, 2.500000, 0.04713
1.500000, 3.000000, 0.062489
1.500000, 3.500000, 0.080658
1.500000, 4.000000, 0.101644
1.500000, 4.500000, 0.125455
1.500000, 5.000000, 0.1521
1.500000, 5.500000, 0.181588
1.500000, 6.000000, 0.213928
1.500000, 6.500000, 0.24913
1.500000, 7.000000, 0.287206
1.500000, 7.500000, 0.328164
1.500000, 8.000000, 0.372017
1.500000, 8.500000, 0.418774
1.500000, 9.000000, 0.468446
1.500000, 9.500000, 0.521044
1.500000, 10.000000, 0.576578
1.500000, 10.500000, 0.635059
1.500000, 11.000000, 0.696495
1.500000, 11.500000, 0.760899
1.500000, 12.000000, 0.828278
1.500000, 12.500000, 0.898644
1.500000, 13.000000, 0.972005
1.500000, 13.500000, 1.048371
1.500000, 14.000000, 1.127751
1.500000, 14.500000, 1.210155
1.500000, 15.000000, 1.295593
1.500000, 15.500000, 1.384072
1.500000, 16.000000, 1.475604
1.500000, 16.500000, 1.570198
1.500000, 17.000000, 1.667863
1.500000, 17.500000, 1.76861
1.500000, 18.000000, 1.872448
1.500000, 18.500000, 1.979388
1.500000, 19.000000, 2.08944
1.500000, 19.500000, 2.202616
1.500000, 20.000000, 2.318927
1.500000, 20.500000, 2.438384
1.500000, 21.000000, 2.560999
1.500000, 21.500000, 2.686785
1.500000, 22.000000, 2.815755
1.500000, 22.500000, 2.947921
1.500000, 23.000000, 3.083298
1.500000, 23.500000, 3.2219
1.500000, 24.000000, 3.363741
1.500000, 24.500000, 3.508837
1.500000, 25.000000, 3.657203
1.500000, 25.500000, 3.808856
1.500000, 26.000000, 3.963812
1.500000, 26.500000, 4.122088
1.500000, 27.000000, 4.283704
1.500000, 27.500000, 4.448677
1.500000, 28.000000, 4.617026
1.500000, 28.500000, 4.788771
1.500000, 29.000000, 4.963933
1.500000, 29.500000, 5.142532
1.500000, 30.000000, 5.324591
1.500000, 30.500000, 5.510132
1.500000, 31.000000, 5.699178
1.500000, 31.500000, 5.891752
1.500000, 32.000000, 6.08788
1.500000, 32.500000, 6.287586
1.500000, 33.000000, 6.490896
1.500000, 33.500000, 6.697839
1.500000, 34.000000, 6.90844
1.500000, 34.500000, 7.122729
1.500000, 35.000000, 7.340735
1.500000, 35.500000, 7.562488
1.500000, 36.000000, 7.788019
1.500000, 36.500000, 8.017361
1.500000, 37.000000, 8.250546
1.500000, 37.500000, 8.487608
1.500000, 38.000000, 8.728582
1.500000, 38.500000, 8.973505
1.500000, 39.000000, 9.222413
1.500000, 39.500000, 9.475344
1.500000, 40.000000, 9.732338
1.500000, 40.500000, 9.993435
1.500000, 41.000000, 10.258678
1.500000, 41.500000, 10.528108
1.500000, 42.000000, 10.801771
1.500000, 42.500000, 11.079712
2.000000, -42.500000, 11.113163
2.000000, -42.000000, 10.834944
2.000000, -41.500000, 10.561007
2.000000, -41.000000, 10.291306
2.000000, -40.500000, 10.025797
2.000000, -40.000000, 9.764436
2.000000, -39.500000, 9.507182
2.000000, -39.000000, 9.253993
2.000000, -38.500000, 9.004831
2.000000, -38.000000, 8.759657
2.000000, -37.500000, 8.518433
2.000000, -37.000000, 8.281124
2.000000, -36.500000, 8.047694
2.000000, -36.000000, 7.81811
2.000000, -35.500000, 7.592337
2.000000, -35.000000, 7.370344
2.000000, -34.500000, 7.1521
2.000000, -34.000000, 6.937573
2.000000, -33.500000, 6.726735
2.000000, -33.000000, 6.519557
2.000000, -32.500000, 6.316011
2.000000, -32.000000, 6.11607
2.000000, -31.500000, 5.919707
2.000000, -31.000000, 5.726897
2.000000, -30.500000, 5.537615
2.000000, -30.000000, 5.351837
2.000000, -29.500000, 5.16954
2.000000, -29.000000, 4.990701
2.000000, -28.500000, 4.815298
2.000000, -28.000000, 4.64331
2.000000, -27.500000, 4.474715
2.000000, -27.000000, 4.309495
2.000000, -26.500000, 4.147628
2.000000, -26.000000, 3.989098
2.000000, -25.500000, 3.833885
2.000000, -25.000000, 3.681971
2.000000, -24.500000, 3.53334
2.000000, -24.000000, 3.387975
2.000000, -23.500000, 3.245861
2.000000, -23.000000, 3.10698
2.000000, -22.500000, 2.97132
2.000000, -22.000000, 2.838864
2.000000, -21.500000, 2.7096
2.000000, -21.000000, 2.583513
2.000000, -20.500000, 2.460592
2.000000, -20.000000, 2.340822
2.000000, -19.500000, 2.224193
2.000000, -19.000000, 2.110692
2.000000, -18.500000, 2.000308
2.000000, -18.000000, 1.89303
2.000000, -17.500000, 1.788847
2.000000, -17.000000, 1.68775
2.000000, -16.500000, 1.589729
2.000000, -16.000000, 1.494772
2.000000, -15.500000, 1.402872
2.000000, -15.000000, 1.31402
2.000000, -14.500000, 1.228205
2.000000, -14.000000, 1.145419
2.000000, -13.500000, 1.065653
2.000000, -13.000000, 0.9889
2.000000, -12.500000, 0.915149
2.000000, -12.000000, 0.844393
2.000000, -11.500000, 0.776623
2.000000, -11.000000, 0.71183
2.000000, -10.500000, 0.650006
2.000000, -10.000000, 0.591142
2.000000, -9.500000, 0.535229
2.000000, -9.000000, 0.482259
2.000000, -8.500000, 0.432221
2.000000, -8.000000, 0.385108
2.000000, -7.500000, 0.34091
2.000000, -7.000000, 0.299617
2.000000, -6.500000, 0.261222
2.000000, -6.000000, 0.225713
2.000000, -5.500000, 0.193084
2.000000, -5.000000, 0.163324
2.000000, -4.500000, 0.136426
2.000000, -4.000000, 0.112381
2.000000, -3.500000, 0.091182
2.000000, -3.000000, 0.072821
2.000000, -2.500000, 0.057293
2.000000, -2.000000, 0.044592
2.000000, -1.500000, 0.034712
2.000000, -1.000000, 0.027649
2.000000, -0.500000, 0.023402
2.000000, 0.000000, 0.021967
2.000000, 0.500000, 0.023344
2.000000, 1.000000, 0.027533
2.000000, 1.500000, 0.034535
2.000000, 2.000000, 0.044351
2.000000, 2.500000, 0.056986
2.000000, 3.000000, 0.072443
2.000000, 3.500000, 0.090727
2.000000, 4.000000, 0.111843
2.000000, 4.500000, 0.135799
2.000000, 5.000000, 0.162601
2.000000, 5.500000, 0.192256
2.000000, 6.000000, 0.224773
2.000000, 6.500000, 0.26016
2.000000, 7.000000, 0.298426
2.000000, 7.500000, 0.33958
2.000000, 8.000000, 0.38363
2.000000, 8.500000, 0.430586
2.000000, 9.000000, 0.480458
2.000000, 9.500000, 0.533254
2.000000, 10.000000, 0.588984
2.000000, 10.500000, 0.647656
2.000000, 11.000000, 0.709281
2.000000, 11.500000, 0.773868
2.000000, 12.000000, 0.841424
2.000000, 12.500000, 0.91196
2.000000, 13.000000, 0.985485
2.000000, 13.500000, 1.062008
2.000000, 14.000000, 1.141538
2.000000, 14.500000, 1.224083
2.000000, 15.000000, 1.309654
2.000000, 15.500000, 1.398259
2.000000, 16.000000, 1.489909
2.000000, 16.500000, 1.584613
2.000000, 17.000000, 1.68238
2.000000, 17.500000, 1.783221
2.000000, 18.000000, 1.887146
2.000000, 18.500000, 1.994165
2.000000, 19.000000, 2.10429
2.000000, 19.500000, 2.217532
2.000000, 20.000000, 2.333903
2.000000, 20.500000, 2.453413
2.000000, 21.000000, 2.576076
2.000000, 21.500000, 2.701904
2.000000, 22.000000, 2.83091
2.000000, 22.500000, 2.963109
2.000000, 23.000000, 3.098513
2.000000, 23.500000, 3.237138
2.000000, 24.000000, 3.378998
2.000000, 24.500000, 3.524109
2.000000, 25.000000, 3.672486
2.000000, 25.500000, 3.824147
2.000000, 26.000000, 3.979109
2.000000, 26.500000, 4.137389
2.000000, 27.000000, 4.299005
2.000000, 27.500000, 4.463976
2.000000, 28.000000, 4.632321
2.000000, 28.500000, 4.804061
2.000000, 29.000000, 4.979216
2.000000, 29.500000, 5.157807
2.000000, 30.000000, 5.339856
2.000000, 30.500000, 5.525387
2.000000, 31.000000, 5.714421
2.000000, 31.500000, 5.906983
2.000000, 32.000000, 6.103098
2.000000, 32.500000, 6.302792
2.000000, 33.000000, 6.506089
2.000000, 33.500000, 6.713018
2.000000, 34.000000, 6.923607
2.000000, 34.500000, 7.137883
2.000000, 35.000000, 7.355876
2.000000, 35.500000, 7.577617
2.000000, 36.000000, 7.803136
2.000000, 36.500000, 8.032466
2.000000, 37.000000, 8.26564
2.000000, 37.500000, 8.502692
2.000000, 38.000000, 8.743658
2.000000, 38.500000, 8.988572
2.000000, 39.000000, 9.237472
2.000000, 39.500000, 9.490397
2.000000, 40.000000, 9.747386
2.000000, 40.500000, 10.008479
2.000000, 41.000000, 10.273718
2.000000, 41.500000, 10.543147
2.000000, 42.000000, 10.816809
2.000000, 42.500000, 11.094751
2.500000, -42.500000, 11.130539
2.500000, -42.000000, 10.852303
2.500000, -41.500000, 10.578349
2.500000, -41.000000, 10.308634
2.500000, -40.500000, 10.043112
2.500000, -40.000000, 9.781739
2.500000, -39.500000, 9.524475
2.500000, -39.000000, 9.271278
2.500000, -38.500000, 9.022109
2.500000, -38.000000, 8.776929
2.500000, -37.500000, 8.535701
2.500000, -37.000000, 8.298388
2.500000, -36.500000, 8.064957
2.500000, -36.000000, 7.835371
2.500000, -35.500000, 7.609598
2.500000, -35.000000, 7.387606
2.500000, -34.500000, 7.169364
2.500000, -34.000000, 6.95484
2.500000, -33.500000, 6.744006
2.500000, -33.000000, 6.536832
2.500000, -32.500000, 6.33329
2.500000, -32.000000, 6.133354
2.500000, -31.500000, 5.936996
2.500000, -31.000000, 5.744191
2.500000, -30.500000, 5.554915
2.500000, -30.000000, 5.369143
2.500000, -29.500000, 5.186851
2.500000, -29.000000, 5.008017
2.500000, -28.500000, 4.832619
2.500000, -28.000000, 4.660635
2.500000, -27.500000, 4.492043
2.500000, -27.000000, 4.326825
2.500000, -26.500000, 4.16496
2.500000, -26.000000, 4.006429
2.500000, -25.500000, 3.851214
2.500000, -25.000000, 3.699296
2.500000, -24.500000, 3.550659
2.500000, -24.000000, 3.405286
2.500000, -23.500000, 3.26316
2.500000, -23.000000, 3.124266
2.500000, -22.500000, 2.988589
2.500000, -22.000000, 2.856113
2.500000, -21.500000, 2.726825
2.500000, -21.000000, 2.600711
2.500000, -20.500000, 2.477757
2.500000, -20.000000, 2.35795
2.500000, -19.500000, 2.241279
2.500000, -19.000000, 2.127731
2.500000, -18.500000, 2.017294
2.500000, -18.000000, 1.909957
2.500000, -17.500000, 1.80571
2.500000, -17.000000, 1.704542
2.500000, -16.500000, 1.606443
2.500000, -16.000000, 1.511402
2.500000, -15.500000, 1.41941
2.500000, -15.000000, 1.330458
2.500000, -14.500000, 1.244537
2.500000, -14.000000, 1.161638
2.500000, -13.500000, 1.081751
2.500000, -13.000000, 1.004869
2.500000, -12.500000, 0.930984
2.500000, -12.000000, 0.860085
2.500000, -11.500000, 0.792167
2.500000, -11.000000, 0.727219
2.500000, -10.500000, 0.665235
2.500000, -10.000000, 0.606206
2.500000, -9.500000, 0.550124
2.500000, -9.000000, 0.496981
2.500000, -8.500000, 0.446769
2.500000, -8.000000, 0.399479
2.500000, -7.500000, 0.355105
2.500000, -7.000000, 0.313638
2.500000, -6.500000, 0.27507
2.500000, -6.000000, 0.239393
2.500000, -5.500000, 0.206601
2.500000, -5.000000, 0.176686
2.500000, -4.500000, 0.14964
2.500000, -4.000000, 0.125457
2.500000, -3.500000, 0.104131
2.500000, -3.000000, 0.085657
2.500000, -2.500000, 0.070028
2.500000, -2.000000, 0.05724
2.500000, -1.500000, 0.04729
2.500000, -1.000000, 0.040174
2.500000, -0.500000, 0.035889
2.500000, 0.000000, 0.034434
2.500000, 0.500000, 0.035808
2.500000, 1.000000, 0.040012
2.500000, 1.500000, 0.047045
2.500000, 2.000000, 0.05691
2.500000, 2.500000, 0.069609
2.500000, 3.000000, 0.085145
2.500000, 3.500000, 0.103522
2.500000, 4.000000, 0.124745
2.500000, 4.500000, 0.148819
2.500000, 5.000000, 0.175749
2.500000, 5.500000, 0.205543
2.500000, 6.000000, 0.238206
2.500000, 6.500000, 0.273746
2.500000, 7.000000, 0.31217
2.500000, 7.500000, 0.353486
2.500000, 8.000000, 0.397701
2.500000, 8.500000, 0.444823
2.500000, 9.000000, 0.494861
2.500000, 9.500000, 0.547823
2.500000, 10.000000, 0.603717
2.500000, 10.500000, 0.662551
2.500000, 11.000000, 0.724335
2.500000, 11.500000, 0.789075
2.500000, 12.000000, 0.856782
2.500000, 12.500000, 0.927463
2.500000, 13.000000, 1.001127
2.500000, 13.500000, 1.077783
2.500000, 14.000000, 1.15744
2.500000, 14.500000, 1.240106
2.500000, 15.000000, 1.325792
2.500000, 15.500000, 1.414505
2.500000, 16.000000, 1.506257
2.500000, 16.500000, 1.601056
2.500000, 17.000000, 1.698912
2.500000, 17.500000, 1.799836
2.500000, 18.000000, 1.903837
2.500000, 18.500000, 2.010928
2.500000, 19.000000, 2.121119
2.500000, 19.500000, 2.23442
2.500000, 20.000000, 2.350845
2.500000, 20.500000, 2.470406
2.500000, 21.000000, 2.593114
2.500000, 21.500000, 2.718983
2.500000, 22.000000, 2.848026
2.500000, 22.500000, 2.980257
2.500000, 23.000000, 3.11569
2.500000, 23.500000, 3.25434
2.500000, 24.000000, 3.396223
2.500000, 24.500000, 3.541353
2.500000, 25.000000, 3.689748
2.500000, 25.500000, 3.841423
2.500000, 26.000000, 3.996397
2.500000, 26.500000, 4.154687
2.500000, 27.000000, 4.316312
2.500000, 27.500000, 4.48129
2.500000, 28.000000, 4.649641
2.500000, 28.500000, 4.821385
2.500000, 29.000000, 4.996543
2.500000, 29.500000, 5.175137
2.500000, 30.000000, 5.357189
2.500000, 30.500000, 5.54272
2.500000, 31.000000, 5.731755
2.500000, 31.500000, 5.924318
2.500000, 32.000000, 6.120434
2.500000, 32.500000, 6.320128
2.500000, 33.000000, 6.523427
2.500000, 33.500000, 6.730357
2.500000, 34.000000, 6.940946
2.500000, 34.500000, 7.155224
2.500000, 35.000000, 7.373219
2.500000, 35.500000, 7.594963
2.500000, 36.000000, 7.820486
2.500000, 36.500000, 8.049821
2.500000, 37.000000, 8.283
2.500000, 37.500000, 8.520058
2.500000, 38.000000, 8.761031
2.500000, 38.500000, 9.005953
2.500000, 39.000000, 9.254863
2.500000, 39.500000, 9.507799
2.500000, 40.000000, 9.764799
2.500000, 40.500000, 10.025906
2.500000, 41.000000, 10.29116
2.500000, 41.500000, 10.560605
2.500000, 42.000000, 10.834285
2.500000, 42.500000, 11.112246
3.000000, -42.500000, 11.150496
3.000000, -42.000000, 10.872223
3.000000, -41.500000, 10.598235
3.000000, -41.000000, 10.328487
3.000000, -40.500000, 10.062933
3.000000, -40.000000, 9.801532
3.000000, -39.500000, 9.54424
3.000000, -39.000000, 9.291017
3.000000, -38.500000, 9.041823
3.000000, -38.000000, 8.79662
3.000000, -37.500000, 8.55537
3.000000, -37.000000, 8.318038
3.000000, -36.500000, 8.084587
3.000000, -36.000000, 7.854984
3.000000, -35.500000, 7.629195
3.000000, -35.000000, 7.407188
3.000000, -34.500000, 7.188931
3.000000, -34.000000, 6.974395
3.000000, -33.500000, 6.763548
3.000000, -33.000000, 6.556363
3.000000, -32.500000, 6.352811
3.000000, -32.000000, 6.152865
3.000000, -31.500000, 5.956498
3.000000, -31.000000, 5.763685
3.000000, -30.500000, 5.574401
3.000000, -30.000000, 5.388621
3.000000, -29.500000, 5.206322
3.000000, -29.000000, 5.02748
3.000000, -28.500000, 4.852074
3.000000, -28.000000, 4.680082
3.000000, -27.500000, 4.511482
3.000000, -27.000000, 4.346255
3.000000, -26.500000, 4.184381
3.000000, -26.000000, 4.02584
3.000000, -25.500000, 3.870614
3.000000, -25.000000, 3.718684
3.000000, -24.500000, 3.570034
3.000000, -24.000000, 3.424645
3.000000, -23.500000, 3.282503
3.000000, -23.000000, 3.14359
3.000000, -22.500000, 3.007891
3.000000, -22.000000, 2.875392
3.000000, -21.500000, 2.746077
3.000000, -21.000000, 2.619933
3.000000, -20.500000, 2.496947
3.000000, -20.000000, 2.377104
3.000000, -19.500000, 2.260393
3.000000, -19.000000, 2.146802
3.000000, -18.500000, 2.036317
3.000000, -18.000000, 1.928928
3.000000, -17.500000, 1.824624
3.000000, -17.000000, 1.723394
3.000000, -16.500000, 1.625228
3.000000, -16.000000, 1.530115
3.000000, -15.500000, 1.438045
3.000000, -15.000000, 1.34901
3.000000, -14.500000, 1.263
3.000000, -14.000000, 1.180006
3.000000, -13.500000, 1.10002
3.000000, -13.000000, 1.023032
3.000000, -12.500000, 0.949034
3.000000, -12.000000, 0.87802
3.000000, -11.500000, 0.809979
3.000000, -11.000000, 0.744905
3.000000, -10.500000, 0.68279
3.000000, -10.000000, 0.623626
3.000000, -9.500000, 0.567406
3.000000, -9.000000, 0.514123
3.000000, -8.500000, 0.463769
3.000000, -8.000000, 0.416336
3.000000, -7.500000, 0.371819
3.000000, -7.000000, 0.33021
3.000000, -6.500000, 0.291502
3.000000, -6.000000, 0.255689
3.000000, -5.500000, 0.222764
3.000000, -5.000000, 0.192722
3.000000, -4.500000, 0.165556
3.000000, -4.000000, 0.141261
3.000000, -3.500000, 0.119831
3.000000, -3.000000, 0.101263
3.000000, -2.500000, 0.085551
3.000000, -2.000000, 0.072693
3.000000, -1.500000, 0.062684
3.000000, -1.000000, 0.055522
3.000000, -0.500000, 0.051206
3.000000, 0.000000, 0.049733
3.000000, 0.500000, 0.051103
3.000000, 1.000000, 0.055316
3.000000, 1.500000, 0.062373
3.000000, 2.000000, 0.072275
3.000000, 2.500000, 0.085024
3.000000, 3.000000, 0.100623
3.000000, 3.500000, 0.119074
3.000000, 4.000000, 0.140382
3.000000, 4.500000, 0.164551
3.000000, 5.000000, 0.191585
3.000000, 5.500000, 0.22149
3.000000, 6.000000, 0.254271
3.000000, 6.500000, 0.289935
3.000000, 7.000000, 0.328488
3.000000, 7.500000, 0.369935
3.000000, 8.000000, 0.414285
3.000000, 8.500000, 0.461543
3.000000, 9.000000, 0.511718
3.000000, 9.500000, 0.564816
3.000000, 10.000000, 0.620846
3.000000, 10.500000, 0.679814
3.000000, 11.000000, 0.741728
3.000000, 11.500000, 0.806597
3.000000, 12.000000, 0.874428
3.000000, 12.500000, 0.94523
3.000000, 13.000000, 1.019011
3.000000, 13.500000, 1.095779
3.000000, 14.000000, 1.175543
3.000000, 14.500000, 1.258313
3.000000, 15.000000, 1.344096
3.000000, 15.500000, 1.432902
3.000000, 16.000000, 1.524741
3.000000, 16.500000, 1.619623
3.000000, 17.000000, 1.717556
3.000000, 17.500000, 1.818553
3.000000, 18.000000, 1.922623
3.000000, 18.500000, 2.029777
3.000000, 19.000000, 2.140027
3.000000, 19.500000, 2.253384
3.000000, 20.000000, 2.36986
3.000000, 20.500000, 2.489468
3.000000, 21.000000, 2.61222
3.000000, 21.500000, 2.738129
3.000000, 22.000000, 2.867209
3.000000, 22.500000, 2.999474
3.000000, 23.000000, 3.134939
3.000000, 23.500000, 3.273618
3.000000, 24.000000, 3.415527
3.000000, 24.500000, 3.560682
3.000000, 25.000000, 3.7091
3.000000, 25.500000, 3.860796
3.000000, 26.000000, 4.01579
3.000000, 26.500000, 4.174098
3.000000, 27.000000, 4.335739
3.000000, 27.500000, 4.500733
3.000000, 28.000000, 4.669099
3.000000, 28.500000, 4.840858
3.000000, 29.000000, 5.01603
3.000000, 29.500000, 5.194638
3.000000, 30.000000, 5.376702
3.000000, 30.500000, 5.562247
3.000000, 31.000000, 5.751296
3.000000, 31.500000, 5.943872
3.000000, 32.000000, 6.140001
3.000000, 32.500000, 6.339709
3.000000, 33.000000, 6.543022
3.000000, 33.500000, 6.749967
3.000000, 34.000000, 6.960572
3.000000, 34.500000, 7.174866
3.000000, 35.000000, 7.392879
3.000000, 35.500000, 7.61464
3.000000, 36.000000, 7.840182
3.000000, 36.500000, 8.069537
3.000000, 37.000000, 8.302737
3.000000, 37.500000, 8.539818
3.000000, 38.000000, 8.780814
3.000000, 38.500000, 9.025761
3.000000, 39.000000, 9.274697
3.000000, 39.500000, 9.52766
3.000000, 40.000000, 9.78469
3.000000, 40.500000, 10.045827
3.000000, 41.000000, 10.311113
3.000000, 41.500000, 10.580592
3.000000, 42.000000, 10.854308
3.000000, 42.500000, 11.132306
3.500000, -42.500000, 11.173143
3.500000, -42.000000, 10.894815
3.500000, -41.500000, 10.620775
3.500000, -41.000000, 10.350976
3.500000, -40.500000, 10.085374
3.500000, -40.000000, 9.823926
3.500000, -39.500000, 9.566589
3.500000, -39.000000, 9.313322
3.500000, -38.500000, 9.064087
3.500000, -38.000000, 8.818845
3.500000, -37.500000, 8.577557
3.500000, -37.000000, 8.340188
3.500000, -36.500000, 8.106703
3.500000, -36.000000, 7.877066
3.500000, -35.500000, 7.651245
3.500000, -35.000000, 7.429208
3.500000, -34.500000, 7.210922
3.500000, -34.000000, 6.996357
3.500000, -33.500000, 6.785484
3.500000, -33.000000, 6.578273
3.500000, -32.500000, 6.374696
3.500000, -32.000000, 6.174726
3.500000, -31.500000, 5.978336
3.500000, -31.000000, 5.785501
3.500000, -30.500000, 5.596195
3.500000, -30.000000, 5.410395
3.500000, -29.500000, 5.228075
3.500000, -29.000000, 5.049214
3.500000, -28.500000, 4.873788
3.500000, -28.000000, 4.701777
3.500000, -27.500000, 4.533158
3.500000, -27.000000, 4.367912
3.500000, -26.500000, 4.206018
3.500000, -26.000000, 4.047457
3.500000, -25.500000, 3.892211
3.500000, -25.000000, 3.740261
3.500000, -24.500000, 3.591589
3.500000, -24.000000, 3.446178
3.500000, -23.500000, 3.304012
3.500000, -23.000000, 3.165074
3.500000, -22.500000, 3.02935
3.500000, -22.000000, 2.896822
3.500000, -21.500000, 2.767478
3.500000, -21.000000, 2.641303
3.500000, -20.500000, 2.518283
3.500000, -20.000000, 2.398404
3.500000, -19.500000, 2.281655
3.500000, -19.000000, 2.168021
3.500000, -18.500000, 2.057492
3.500000, -18.000000, 1.950056
3.500000, -17.500000, 1.845701
3.500000, -17.000000, 1.744416
3.500000, -16.500000, 1.646191
3.500000, -16.000000, 1.551016
3.500000, -15.500000, 1.458881
3.500000, -15.000000, 1.369775
3.500000, -14.500000, 1.283691
3.500000, -14.000000, 1.200618
3.500000, -13.500000, 1.120549
3.500000, -13.000000, 1.043474
3.500000, -12.500000, 0.969386
3.500000, -12.000000, 0.898276
3.500000, -11.500000, 0.830137
3.500000, -11.000000, 0.76496
3.500000, -10.500000, 0.70274
3.500000, -10.000000, 0.643468
3.500000, -9.500000, 0.587138
3.500000, -9.000000, 0.533742
3.500000, -8.500000, 0.483274
3.500000, -8.000000, 0.435728
3.500000, -7.500000, 0.391097
3.500000, -7.000000, 0.349374
3.500000, -6.500000, 0.310555
3.500000, -6.000000, 0.274633
3.500000, -5.500000, 0.241603
3.500000, -5.000000, 0.21146
3.500000, -4.500000, 0.184198
3.500000, -4.000000, 0.159814
3.500000, -3.500000, 0.138301
3.500000, -3.000000, 0.119658
3.500000, -2.500000, 0.10388
3.500000, -2.000000, 0.090964
3.500000, -1.500000, 0.080908
3.500000, -1.000000, 0.073709
3.500000, -0.500000, 0.069366
3.500000, 0.000000, 0.067877
3.500000, 0.500000, 0.069243
3.500000, 1.000000, 0.073463
3.500000, 1.500000, 0.080537
3.500000, 2.000000, 0.090467
3.500000, 2.500000, 0.103255
3.500000, 3.000000, 0.118901
3.500000, 3.500000, 0.13741
3.500000, 4.000000, 0.158785
3.500000, 4.500000, 0.183028
3.500000, 5.000000, 0.210143
3.500000, 5.500000, 0.240136
3.500000, 6.000000, 0.273012
3.500000, 6.500000, 0.308774
3.500000, 7.000000, 0.347429
3.500000, 7.500000, 0.388982
3.500000, 8.000000, 0.433439
3.500000, 8.500000, 0.480807
3.500000, 9.000000, 0.531092
3.500000, 9.500000, 0.5843
3.500000, 10.000000, 0.640439
3.500000, 10.500000, 0.699516
3.500000, 11.000000, 0.761537
3.500000, 11.500000, 0.826511
3.500000, 12.000000, 0.894445
3.500000, 12.500000, 0.965347
3.500000, 13.000000, 1.039224
3.500000, 13.500000, 1.116086
3.500000, 14.000000, 1.19594
3.500000, 14.500000, 1.278796
3.500000, 15.000000, 1.364662
3.500000, 15.500000, 1.453547
3.500000, 16.000000, 1.545462
3.500000, 16.500000, 1.640415
3.500000, 17.000000, 1.738417
3.500000, 17.500000, 1.839478
3.500000, 18.000000, 1.943609
3.500000, 18.500000, 2.050821
3.500000, 19.000000, 2.161125
3.500000, 19.500000, 2.274533
3.500000, 20.000000, 2.391058
3.500000, 20.500000, 2.510711
3.500000, 21.000000, 2.633506
3.500000, 21.500000, 2.759456
3.500000, 22.000000, 2.888575
3.500000, 22.500000, 3.020876
3.500000, 23.000000, 3.156376
3.500000, 23.500000, 3.295088
3.500000, 24.000000, 3.437028
3.500000, 24.500000, 3.582213
3.500000, 25.000000, 3.730659
3.500000, 25.500000, 3.882384
3.500000, 26.000000, 4.037404
3.500000, 26.500000, 4.195738
3.500000, 27.000000, 4.357405
3.500000, 27.500000, 4.522424
3.500000, 28.000000, 4.690815
3.500000, 28.500000, 4.862598
3.500000, 29.000000, 5.037795
3.500000, 29.500000, 5.216427
3.500000, 30.000000, 5.398516
3.500000, 30.500000, 5.584085
3.500000, 31.000000, 5.773159
3.500000, 31.500000, 5.965761
3.500000, 32.000000, 6.161917
3.500000, 32.500000, 6.361652
3.500000, 33.000000, 6.564992
3.500000, 33.500000, 6.771966
3.500000, 34.000000, 6.9826
3.500000, 34.500000, 7.196925
3.500000, 35.000000, 7.414969
3.500000, 35.500000, 7.636763
3.500000, 36.000000, 7.862339
3.500000, 36.500000, 8.091728
3.500000, 37.000000, 8.324965
3.500000, 37.500000, 8.562083
3.500000, 38.000000, 8.803119
3.500000, 38.500000, 9.048107
3.500000, 39.000000, 9.297085
3.500000, 39.500000, 9.550092
3.500000, 40.000000, 9.807167
3.500000, 40.500000, 10.068352
3.500000, 41.000000, 10.333687
3.500000, 41.500000, 10.603217
3.500000, 42.000000, 10.876986
3.500000, 42.500000, 11.155039
4.000000, -42.500000, 11.198585
4.000000, -42.000000, 10.920186
4.000000, -41.500000, 10.646075
4.000000, -41.000000, 10.376209
4.000000, -40.500000, 10.110542
4.000000, -40.000000, 9.84903
4.000000, -39.500000, 9.591632
4.000000, -39.000000, 9.338307
4.000000, -38.500000, 9.089014
4.000000, -38.000000, 8.843716
4.000000, -37.500000, 8.602375
4.000000, -37.000000, 8.364954
4.000000, -36.500000, 8.131418
4.000000, -36.000000, 7.901733
4.000000, -35.500000, 7.675865
4.000000, -35.000000, 7.453782
4.000000, -34.500000, 7.235453
4.000000, -34.000000, 7.020846
4.000000, -33.500000, 6.809931
4.000000, -33.000000, 6.60268
4.000000, -32.500000, 6.399065
4.000000, -32.000000, 6.199058
4.000000, -31.500000, 6.002632
4.000000, -31.000000, 5.809762
4.000000, -30.500000, 5.620422
4.000000, -30.000000, 5.434588
4.000000, -29.500000, 5.252236
4.000000, -29.000000, 5.073343
4.000000, -28.500000, 4.897887
4.000000, -28.000000, 4.725845
4.000000, -27.500000, 4.557196
4.000000, -27.000000, 4.39192
4.000000, -26.500000, 4.229997
4.000000, -26.000000, 4.071407
4.000000, -25.500000, 3.916132
4.000000, -25.000000, 3.764152
4.000000, -24.500000, 3.615451
4.000000, -24.000000, 3.470011
4.000000, -23.500000, 3.327815
4.000000, -23.000000, 3.188846
4.000000, -22.500000, 3.05309
4.000000, -22.000000, 2.920531
4.000000, -21.500000, 2.791153
4.000000, -21.000000, 2.664944
4.000000, -20.500000, 2.541888
4.000000, -20.000000, 2.421972
4.000000, -19.500000, 2.305183
4.000000, -19.000000, 2.19151
4.000000, -18.500000, 2.080938
4.000000, -18.000000, 1.973457
4.000000, -17.500000, 1.869055
4.000000, -17.000000, 1.767721
4.000000, -16.500000, 1.669444
4.000000, -16.000000, 1.574215
4.000000, -15.500000, 1.482022
4.000000, -15.000000, 1.392857
4.000000, -14.500000, 1.30671
4.000000, -14.000000, 1.223571
4.000000, -13.500000, 1.143433
4.000000, -13.000000, 1.066287
4.000000, -12.500000, 0.992125
4.000000, -12.000000, 0.920938
4.000000, -11.500000, 0.852719
4.000000, -11.000000, 0.787462
4.000000, -10.500000, 0.725157
4.000000, -10.000000, 0.6658
4.000000, -9.500000, 0.609382
4.000000, -9.000000, 0.555898
4.000000, -8.500000, 0.505341
4.000000, -8.000000, 0.457705
4.000000, -7.500000, 0.412985
4.000000, -7.000000, 0.371175
4.000000, -6.500000, 0.332269
4.000000, -6.000000, 0.296262
4.000000, -5.500000, 0.26315
4.000000, -5.000000, 0.232928
4.000000, -4.500000, 0.205592
4.000000, -4.000000, 0.181137
4.000000, -3.500000, 0.159561
4.000000, -3.000000, 0.140859
4.000000, -2.500000, 0.125029
4.000000, -2.000000, 0.112068
4.000000, -1.500000, 0.101975
4.000000, -1.000000, 0.094746
4.000000, -0.500000, 0.090382
4.000000, 0.000000, 0.08888
4.000000, 0.500000, 0.090241
4.000000, 1.000000, 0.094465
4.000000, 1.500000, 0.101552
4.000000, 2.000000, 0.111503
4.000000, 2.500000, 0.124319
4.000000, 3.000000, 0.140002
4.000000, 3.500000, 0.158555
4.000000, 4.000000, 0.17998
4.000000, 4.500000, 0.20428
4.000000, 5.000000, 0.231459
4.000000, 5.500000, 0.26152
4.000000, 6.000000, 0.294468
4.000000, 6.500000, 0.330306
4.000000, 7.000000, 0.369041
4.000000, 7.500000, 0.410677
4.000000, 8.000000, 0.455219
4.000000, 8.500000, 0.502673
4.000000, 9.000000, 0.553045
4.000000, 9.500000, 0.606341
4.000000, 10.000000, 0.662568
4.000000, 10.500000, 0.721732
4.000000, 11.000000, 0.783839
4.000000, 11.500000, 0.848898
4.000000, 12.000000, 0.916915
4.000000, 12.500000, 0.987899
4.000000, 13.000000, 1.061856
4.000000, 13.500000, 1.138795
4.000000, 14.000000, 1.218724
4.000000, 14.500000, 1.301653
4.000000, 15.000000, 1.387589
4.000000, 15.500000, 1.476542
4.000000, 16.000000, 1.568521
4.000000, 16.500000, 1.663537
4.000000, 17.000000, 1.761599
4.000000, 17.500000, 1.862718
4.000000, 18.000000, 1.966904
4.000000, 18.500000, 2.074169
4.000000, 19.000000, 2.184524
4.000000, 19.500000, 2.297981
4.000000, 20.000000, 2.414553
4.000000, 20.500000, 2.534251
4.000000, 21.000000, 2.657089
4.000000, 21.500000, 2.783081
4.000000, 22.000000, 2.91224
4.000000, 22.500000, 3.044581
4.000000, 23.000000, 3.180119
