-9.000000, 37.500000, 8.687195
-9.000000, 38.000000, 8.930456
-9.000000, 38.500000, 9.17771
-9.000000, 39.000000, 9.428994
-9.000000, 39.500000, 9.684343
-9.000000, 40.000000, 9.943795
-9.000000, 40.500000, 10.207387
-9.000000, 41.000000, 10.47516
-9.000000, 41.500000, 10.747156
-9.000000, 42.000000, 11.023417
-9.000000, 42.500000, 11.303987
-8.500000, -42.500000, 11.284175
-8.500000, -42.000000, 11.003345
-8.500000, -41.500000, 10.726814
-8.500000, -41.000000, 10.454537
-8.500000, -40.500000, 10.186471
-8.500000, -40.000000, 9.922574
-8.500000, -39.500000, 9.662807
-8.500000, -39.000000, 9.40713
-8.500000, -38.500000, 9.155506
-8.500000, -38.000000, 8.907899
-8.500000, -37.500000, 8.664274
-8.500000, -37.000000, 8.424597
-8.500000, -36.500000, 8.188837
-8.500000, -36.000000, 7.956961
-8.500000, -35.500000, 7.72894
-8.500000, -35.000000, 7.504745
-8.500000, -34.500000, 7.284348
-8.500000, -34.000000, 7.067724
-8.500000, -33.500000, 6.854846
-8.500000, -33.000000, 6.645691
-8.500000, -32.500000, 6.440235
-8.500000, -32.000000, 6.238456
-8.500000, -31.500000, 6.040334
-8.500000, -31.000000, 5.845848
-8.500000, -30.500000, 5.654979
-8.500000, -30.000000, 5.467711
-8.500000, -29.500000, 5.284026
-8.500000, -29.000000, 5.103909
-8.500000, -28.500000, 4.927345
-8.500000, -28.000000, 4.75432
-8.500000, -27.500000, 4.584823
-8.500000, -27.000000, 4.418841
-8.500000, -26.500000, 4.256365
-8.500000, -26.000000, 4.097384
-8.500000, -25.500000, 3.94189
-8.500000, -25.000000, 3.789876
-8.500000, -24.500000, 3.641335
-8.500000, -24.000000, 3.496262
-8.500000, -23.500000, 3.354651
-8.500000, -23.000000, 3.216498
-8.500000, -22.500000, 3.0818
-8.500000, -22.000000, 2.950554
-8.500000, -21.500000, 2.822759
-8.500000, -21.000000, 2.698412
-8.500000, -20.500000, 2.577513
-8.500000, -20.000000, 2.46006
-8.500000, -19.500000, 2.346054
-8.500000, -19.000000, 2.235492
-8.500000, -18.500000, 2.128374
-8.500000, -18.000000, 2.024699
-8.500000, -17.500000, 1.924464
-8.500000, -17.000000, 1.827666
-8.500000, -16.500000, 1.734301
-8.500000, -16.000000, 1.644363
-8.500000, -15.500000, 1.557843
-8.500000, -15.000000, 1.474732
-8.500000, -14.500000, 1.395016
-8.500000, -14.000000, 1.318679
-8.500000, -13.500000, 1.245702
-8.500000, -13.000000, 1.176061
-8.500000, -12.500000, 1.109728
-8.500000, -12.000000, 1.046669
-8.500000, -11.500000, 0.986847
-8.500000, -11.000000, 0.930218
-8.500000, -10.500000, 0.876733
-8.500000, -10.000000, 0.826337
-8.500000, -9.500000, 0.778971
-8.500000, -9.000000, 0.73457
-8.500000, -8.500000, 0.693063
-8.500000, -8.000000, 0.654378
-8.500000, -7.500000, 0.618438
-8.500000, -7.000000, 0.585166
-8.500000, -6.500000, 0.554484
-8.500000, -6.000000, 0.526316
-8.500000, -5.500000, 0.500587
-8.500000, -5.000000, 0.47723
-8.500000, -4.500000, 0.456179
-8.500000, -4.000000, 0.43738
-8.500000, -3.500000, 0.420781
-8.500000, -3.000000, 0.406343
-8.500000, -2.500000, 0.394033
-8.500000, -2.000000, 0.383827
-8.500000, -1.500000, 0.37571
-8.500000, -1.000000, 0.369674
-8.500000, -0.500000, 0.365719
-8.500000, 0.000000, 0.363852
-8.500000, 0.500000, 0.364087
-8.500000, 1.000000, 0.366444
-8.500000, 1.500000, 0.370952
-8.500000, 2.000000, 0.377642
-8.500000, 2.500000, 0.386552
-8.500000, 3.000000, 0.397727
-8.500000, 3.500000, 0.411213
-8.500000, 4.000000, 0.427062
-8.500000, 4.500000, 0.445328
-8.500000, 5.000000, 0.466069
-8.500000, 5.500000, 0.489342
-8.500000, 6.000000, 0.515206
-8.500000, 6.500000, 0.543722
-8.500000, 7.000000, 0.574946
-8.500000, 7.500000, 0.608937
-8.500000, 8.000000, 0.645749
-8.500000, 8.500000, 0.685436
-8.500000, 9.000000, 0.728049
-8.500000, 9.500000, 0.773634
-8.500000, 10.000000, 0.822236
-8.500000, 10.500000, 0.873897
-8.500000, 11.000000, 0.928653
-8.500000, 11.500000, 0.986541
-8.500000, 12.000000, 1.047591
-8.500000, 12.500000, 1.111831
-8.500000, 13.000000, 1.179287
-8.500000, 13.500000, 1.249983
-8.500000, 14.000000, 1.323937
-8.500000, 14.500000, 1.401167
-8.500000, 15.000000, 1.48169
-8.500000, 15.500000, 1.565519
-8.500000, 16.000000, 1.652666
-8.500000, 16.500000, 1.743142
-8.500000, 17.000000, 1.836956
-8.500000, 17.500000, 1.934116
-8.500000, 18.000000, 2.03463
-8.500000, 18.500000, 2.138504
-8.500000, 19.000000, 2.245744
-8.500000, 19.500000, 2.356356
-8.500000, 20.000000, 2.470345
-8.500000, 20.500000, 2.587717
-8.500000, 21.000000, 2.708477
-8.500000, 21.500000, 2.83263
-8.500000, 22.000000, 2.960183
-8.500000, 22.500000, 3.091139
-8.500000, 23.000000, 3.225507
-8.500000, 23.500000, 3.363292
-8.500000, 24.000000, 3.504502
-8.500000, 24.500000, 3.649144
-8.500000, 25.000000, 3.797227
-8.500000, 25.500000, 3.948759
-8.500000, 26.000000, 4.10375
-8.500000, 26.500000, 4.26221
-8.500000, 27.000000, 4.424151
-8.500000, 27.500000, 4.589583
-8.500000, 28.000000, 4.758521
-8.500000, 28.500000, 4.930977
-8.500000, 29.000000, 5.106965
-8.500000, 29.500000, 5.286501
-8.500000, 30.000000, 5.4696
-8.500000, 30.500000, 5.656281
-8.500000, 31.000000, 5.846559
-8.500000, 31.500000, 6.040455
-8.500000, 32.000000, 6.237988
-8.500000, 32.500000, 6.439179
-8.500000, 33.000000, 6.644049
-8.500000, 33.500000, 6.852622
-8.500000, 34.000000, 7.06492
-8.500000, 34.500000, 7.280968
-8.500000, 35.000000, 7.500793
-8.500000, 35.500000, 7.724421
-8.500000, 36.000000, 7.95188
-8.500000, 36.500000, 8.183198
-8.500000, 37.000000, 8.418407
-8.500000, 37.500000, 8.657537
-8.500000, 38.000000, 8.900621
-8.500000, 38.500000, 9.147693
-8.500000, 39.000000, 9.398786
-8.500000, 39.500000, 9.653938
-8.500000, 40.000000, 9.913186
-8.500000, 40.500000, 10.176569
-8.500000, 41.000000, 10.444126
-8.500000, 41.500000, 10.715899
-8.500000, 42.000000, 10.991932
-8.500000, 42.500000, 11.272267
-8.000000, -42.500000, 11.255186
-8.000000, -42.000000, 10.974615
-8.000000, -41.500000, 10.698337
-8.000000, -41.000000, 10.426307
-8.000000, -40.500000, 10.158483
-8.000000, -40.000000, 9.894823
-8.000000, -39.500000, 9.635287
-8.000000, -39.000000, 9.379835
-8.000000, -38.500000, 9.128429
-8.000000, -38.000000, 8.881034
-8.000000, -37.500000, 8.637615
-8.000000, -37.000000, 8.398137
-8.000000, -36.500000, 8.162569
-8.000000, -36.000000, 7.930877
-8.000000, -35.500000, 7.703034
-8.000000, -35.000000, 7.479009
-8.000000, -34.500000, 7.258774
-8.000000, -34.000000, 7.042303
-8.000000, -33.500000, 6.82957
-8.000000, -33.000000, 6.62055
-8.000000, -32.500000, 6.41522
-8.000000, -32.000000, 6.213558
-8.000000, -31.500000, 6.015542
-8.000000, -31.000000, 5.821153
-8.000000, -30.500000, 5.63037
-8.000000, -30.000000, 5.443175
-8.000000, -29.500000, 5.259552
-8.000000, -29.000000, 5.079485
-8.000000, -28.500000, 4.902958
-8.000000, -28.000000, 4.729958
-8.000000, -27.500000, 4.56047
-8.000000, -27.000000, 4.394485
-8.000000, -26.500000, 4.23199
-8.000000, -26.000000, 4.072975
-8.000000, -25.500000, 3.917432
-8.000000, -25.000000, 3.765353
-8.000000, -24.500000, 3.616729
-8.000000, -24.000000, 3.471556
-8.000000, -23.500000, 3.329827
-8.000000, -23.000000, 3.191538
-8.000000, -22.500000, 3.056685
-8.000000, -22.000000, 2.925265
-8.000000, -21.500000, 2.797276
-8.000000, -21.000000, 2.672716
-8.000000, -20.500000, 2.551583
-8.000000, -20.000000, 2.433875
-8.000000, -19.500000, 2.319593
-8.000000, -19.000000, 2.208735
-8.000000, -18.500000, 2.1013
-8.000000, -18.000000, 1.997286
-8.000000, -17.500000, 1.896692
-8.000000, -17.000000, 1.799515
-8.000000, -16.500000, 1.70575
-8.000000, -16.000000, 1.615392
-8.000000, -15.500000, 1.528435
-8.000000, -15.000000, 1.444869
-8.000000, -14.500000, 1.364682
-8.000000, -14.000000, 1.28786
-8.000000, -13.500000, 1.214384
-8.000000, -13.000000, 1.144232
-8.000000, -12.500000, 1.07738
-8.000000, -12.000000, 1.013795
-8.000000, -11.500000, 0.953444
-8.000000, -11.000000, 0.896286
-8.000000, -10.500000, 0.842274
-8.000000, -10.000000, 0.791358
-8.000000, -9.500000, 0.743482
-8.000000, -9.000000, 0.698584
-8.000000, -8.500000, 0.656599
-8.000000, -8.000000, 0.617457
-8.000000, -7.500000, 0.581086
-8.000000, -7.000000, 0.547411
-8.000000, -6.500000, 0.516358
-8.000000, -6.000000, 0.487852
-8.000000, -5.500000, 0.461822
-8.000000, -5.000000, 0.438199
-8.000000, -4.500000, 0.41692
-8.000000, -4.000000, 0.397929
-8.000000, -3.500000, 0.381174
-8.000000, -3.000000, 0.366615
-8.000000, -2.500000, 0.354217
-8.000000, -2.000000, 0.343954
-8.000000, -1.500000, 0.33581
-8.000000, -1.000000, 0.329774
-8.000000, -0.500000, 0.325847
-8.000000, 0.000000, 0.324034
-8.000000, 0.500000, 0.32435
-8.000000, 1.000000, 0.326813
-8.000000, 1.500000, 0.331452
-8.000000, 2.000000, 0.338297
-8.000000, 2.500000, 0.347389
-8.000000, 3.000000, 0.358769
-8.000000, 3.500000, 0.372485
-8.000000, 4.000000, 0.388587
-8.000000, 4.500000, 0.407129
-8.000000, 5.000000, 0.428166
-8.000000, 5.500000, 0.451756
-8.000000, 6.000000, 0.477956
-8.000000, 6.500000, 0.506823
-8.000000, 7.000000, 0.538415
-8.000000, 7.500000, 0.572786
-8.000000, 8.000000, 0.609989
-8.000000, 8.500000, 0.650076
-8.000000, 9.000000, 0.693095
-8.000000, 9.500000, 0.739092
-8.000000, 10.000000, 0.788109
-8.000000, 10.500000, 0.840185
-8.000000, 11.000000, 0.895357
-8.000000, 11.500000, 0.953658
-8.000000, 12.000000, 1.015117
-8.000000, 12.500000, 1.079761
-8.000000, 13.000000, 1.147615
-8.000000, 13.500000, 1.218699
-8.000000, 14.000000, 1.293033
-8.000000, 14.500000, 1.370634
-8.000000, 15.000000, 1.451516
-8.000000, 15.500000, 1.535693
-8.000000, 16.000000, 1.623175
-8.000000, 16.500000, 1.713972
-8.000000, 17.000000, 1.808094
-8.000000, 17.500000, 1.905548
-8.000000, 18.000000, 2.006342
-8.000000, 18.500000, 2.110481
-8.000000, 19.000000, 2.217971
-8.000000, 19.500000, 2.328819
-8.000000, 20.000000, 2.443029
-8.000000, 20.500000, 2.560606
-8.000000, 21.000000, 2.681556
-8.000000, 21.500000, 2.805885
-8.000000, 22.000000, 2.933597
-8.000000, 22.500000, 3.0647
-8.000000, 23.000000, 3.199199
-8.000000, 23.500000, 3.337101
-8.000000, 24.000000, 3.478413
-8.000000, 24.500000, 3.623144
-8.000000, 25.000000, 3.771302
-8.000000, 25.500000, 3.922896
-8.000000, 26.000000, 4.077936
-8.000000, 26.500000, 4.236432
-8.000000, 27.000000, 4.398396
-8.000000, 27.500000, 4.56384
-8.000000, 28.000000, 4.732777
-8.000000, 28.500000, 4.905221
-8.000000, 29.000000, 5.081186
-8.000000, 29.500000, 5.260688
-8.000000, 30.000000, 5.443743
-8.000000, 30.500000, 5.630368
-8.000000, 31.000000, 5.820582
-8.000000, 31.500000, 6.014403
-8.000000, 32.000000, 6.211852
-8.000000, 32.500000, 6.412949
-8.000000, 33.000000, 6.617717
-8.000000, 33.500000, 6.826178
-8.000000, 34.000000, 7.038357
-8.000000, 34.500000, 7.254278
-8.000000, 35.000000, 7.473967
-8.000000, 35.500000, 7.697451
-8.000000, 36.000000, 7.92476
-8.000000, 36.500000, 8.15592
-8.000000, 37.000000, 8.390964
-8.000000, 37.500000, 8.629922
-8.000000, 38.000000, 8.872828
-8.000000, 38.500000, 9.119714
-8.000000, 39.000000, 9.370616
-8.000000, 39.500000, 9.62557
-8.000000, 40.000000, 9.884614
-8.000000, 40.500000, 10.147787
-8.000000, 41.000000, 10.415128
-8.000000, 41.500000, 10.68668
-8.000000, 42.000000, 10.962485
-8.000000, 42.500000, 11.242588
-7.500000, -42.500000, 11.22814
-7.500000, -42.000000, 10.947823
-7.500000, -41.500000, 10.671795
-7.500000, -41.000000, 10.400011
-7.500000, -40.500000, 10.132428
-7.500000, -40.000000, 9.869003
-7.500000, -39.500000, 9.609696
-7.500000, -39.000000, 9.354468
-7.500000, -38.500000, 9.103281
-7.500000, -38.000000, 8.8561
-7.500000, -37.500000, 8.612887
-7.500000, -37.000000, 8.373611
-7.500000, -36.500000, 8.138237
-7.500000, -36.000000, 7.906733
-7.500000, -35.500000, 7.679071
-7.500000, -35.000000, 7.45522
-7.500000, -34.500000, 7.235152
-7.500000, -34.000000, 7.01884
-7.500000, -33.500000, 6.806257
-7.500000, -33.000000, 6.59738
-7.500000, -32.500000, 6.392185
-7.500000, -32.000000, 6.190647
-7.500000, -31.500000, 5.992747
-7.500000, -31.000000, 5.798463
-7.500000, -30.500000, 5.607775
-7.500000, -30.000000, 5.420665
-7.500000, -29.500000, 5.237116
-7.500000, -29.000000, 5.05711
-7.500000, -28.500000, 4.880633
-7.500000, -28.000000, 4.707669
-7.500000, -27.500000, 4.538206
-7.500000, -27.000000, 4.372231
-7.500000, -26.500000, 4.209732
-7.500000, -26.000000, 4.050699
-7.500000, -25.500000, 3.895122
-7.500000, -25.000000, 3.742993
-7.500000, -24.500000, 3.594304
-7.500000, -24.000000, 3.449047
-7.500000, -23.500000, 3.307218
-7.500000, -23.000000, 3.16881
-7.500000, -22.500000, 3.033821
-7.500000, -22.000000, 2.902245
-7.500000, -21.500000, 2.77408
-7.500000, -21.000000, 2.649324
-7.500000, -20.500000, 2.527974
-7.500000, -20.000000, 2.41003
-7.500000, -19.500000, 2.295489
-7.500000, -19.000000, 2.184351
-7.500000, -18.500000, 2.076615
-7.500000, -18.000000, 1.972278
-7.500000, -17.500000, 1.87134
-7.500000, -17.000000, 1.773797
-7.500000, -16.500000, 1.679646
-7.500000, -16.000000, 1.588881
-7.500000, -15.500000, 1.501497
-7.500000, -15.000000, 1.417485
-7.500000, -14.500000, 1.336835
-7.500000, -14.000000, 1.259532
-7.500000, -13.500000, 1.185561
-7.500000, -13.000000, 1.114901
-7.500000, -12.500000, 1.04753
-7.500000, -12.000000, 0.983418
-7.500000, -11.500000, 0.922533
-7.500000, -11.000000, 0.864838
-7.500000, -10.500000, 0.810291
-7.500000, -10.000000, 0.758843
-7.500000, -9.500000, 0.710443
-7.500000, -9.000000, 0.665033
-7.500000, -8.500000, 0.622552
-7.500000, -8.000000, 0.582933
-7.500000, -7.500000, 0.546108
-7.500000, -7.000000, 0.512007
-7.500000, -6.500000, 0.480557
-7.500000, -6.000000, 0.451688
-7.500000, -5.500000, 0.42533
-7.500000, -5.000000, 0.401416
-7.500000, -4.500000, 0.379884
-7.500000, -4.000000, 0.360678
-7.500000, -3.500000, 0.343746
-7.500000, -3.000000, 0.329047
-7.500000, -2.500000, 0.316544
-7.500000, -2.000000, 0.306212
-7.500000, -1.500000, 0.298032
-7.500000, -1.000000, 0.291993
-7.500000, -0.500000, 0.288092
-7.500000, 0.000000, 0.286336
-7.500000, 0.500000, 0.286737
-7.500000, 1.000000, 0.289315
-7.500000, 1.500000, 0.294095
-7.500000, 2.000000, 0.30111
-7.500000, 2.500000, 0.310397
-7.500000, 3.000000, 0.321998
-7.500000, 3.500000, 0.33596
-7.500000, 4.000000, 0.352333
-7.500000, 4.500000, 0.371168
-7.500000, 5.000000, 0.392521
-7.500000, 5.500000, 0.416445
-7.500000, 6.000000, 0.442998
-7.500000, 6.500000, 0.472234
-7.500000, 7.000000, 0.504208
-7.500000, 7.500000, 0.538974
-7.500000, 8.000000, 0.576582
-7.500000, 8.500000, 0.617081
-7.500000, 9.000000, 0.660519
-7.500000, 9.500000, 0.706938
-7.500000, 10.000000, 0.756378
-7.500000, 10.500000, 0.808878
-7.500000, 11.000000, 0.864472
-7.500000, 11.500000, 0.92319
-7.500000, 12.000000, 0.985061
-7.500000, 12.500000, 1.050111
-7.500000, 13.000000, 1.118362
-7.500000, 13.500000, 1.189835
-7.500000, 14.000000, 1.264548
-7.500000, 14.500000, 1.342515
-7.500000, 15.000000, 1.423752
-7.500000, 15.500000, 1.508271
-7.500000, 16.000000, 1.596081
-7.500000, 16.500000, 1.687193
-7.500000, 17.000000, 1.781615
-7.500000, 17.500000, 1.879355
-7.500000, 18.000000, 1.980419
-7.500000, 18.500000, 2.084813
-7.500000, 19.000000, 2.192543
-7.500000, 19.500000, 2.303615
-7.500000, 20.000000, 2.418034
-7.500000, 20.500000, 2.535804
-7.500000, 21.000000, 2.656933
-7.500000, 21.500000, 2.781424
-7.500000, 22.000000, 2.909285
-7.500000, 22.500000, 3.040521
-7.500000, 23.000000, 3.175138
-7.500000, 23.500000, 3.313145
-7.500000, 24.000000, 3.454548
-7.500000, 24.500000, 3.599355
-7.500000, 25.000000, 3.747576
-7.500000, 25.500000, 3.89922
-7.500000, 26.000000, 4.054297
-7.500000, 26.500000, 4.212818
-7.500000, 27.000000, 4.374794
-7.500000, 27.500000, 4.540239
-7.500000, 28.000000, 4.709165
-7.500000, 28.500000, 4.881587
-7.500000, 29.000000, 5.057519
-7.500000, 29.500000, 5.236977
-7.500000, 30.000000, 5.419978
-7.500000, 30.500000, 5.60654
-7.500000, 31.000000, 5.79668
-7.500000, 31.500000, 5.990419
-7.500000, 32.000000, 6.187776
-7.500000, 32.500000, 6.388773
-7.500000, 33.000000, 6.593432
-7.500000, 33.500000, 6.801777
-7.500000, 34.000000, 7.013831
-7.500000, 34.500000, 7.229619
-7.500000, 35.000000, 7.449169
-7.500000, 35.500000, 7.672506
-7.500000, 36.000000, 7.89966
-7.500000, 36.500000, 8.13066
-7.500000, 37.000000, 8.365536
-7.500000, 37.500000, 8.604321
-7.500000, 38.000000, 8.847046
-7.500000, 38.500000, 9.093746
-7.500000, 39.000000, 9.344456
-7.500000, 39.500000, 9.599213
-7.500000, 40.000000, 9.858054
-7.500000, 40.500000, 10.121017
-7.500000, 41.000000, 10.388144
-7.500000, 41.500000, 10.659476
-7.500000, 42.000000, 10.935057
-7.500000, 42.500000, 11.214929
-7.000000, -42.500000, 11.203023
-7.000000, -42.000000, 10.922956
-7.000000, -41.500000, 10.647174
-7.000000, -41.000000, 10.375631
-7.000000, -40.500000, 10.108284
-7.000000, -40.000000, 9.845091
-7.000000, -39.500000, 9.586012
-7.000000, -39.000000, 9.331007
-7.000000, -38.500000, 9.080038
-7.000000, -38.000000, 8.833069
-7.000000, -37.500000, 8.590064
-7.000000, -37.000000, 8.350988
-7.000000, -36.500000, 8.11581
-7.000000, -36.000000, 7.884497
-7.000000, -35.500000, 7.657018
-7.000000, -35.000000, 7.433344
-7.000000, -34.500000, 7.213446
-7.000000, -34.000000, 6.997297
-7.000000, -33.500000, 6.784871
-7.000000, -33.000000, 6.576142
-7.000000, -32.500000, 6.371086
-7.000000, -32.000000, 6.169681
-7.000000, -31.500000, 5.971903
-7.000000, -31.000000, 5.777732
-7.000000, -30.500000, 5.587149
-7.000000, -30.000000, 5.400133
-7.000000, -29.500000, 5.216667
-7.000000, -29.000000, 5.036734
-7.000000, -28.500000, 4.860318
-7.000000, -28.000000, 4.687404
-7.000000, -27.500000, 4.517978
-7.000000, -27.000000, 4.352026
-7.000000, -26.500000, 4.189537
-7.000000, -26.000000, 4.0305
-7.000000, -25.500000, 3.874905
-7.000000, -25.000000, 3.722741
-7.000000, -24.500000, 3.574002
-7.000000, -24.000000, 3.428679
-7.000000, -23.500000, 3.286766
-7.000000, -23.000000, 3.148257
-7.000000, -22.500000, 3.013148
-7.000000, -22.000000, 2.881434
-7.000000, -21.500000, 2.753111
-7.000000, -21.000000, 2.628177
-7.000000, -20.500000, 2.50663
-7.000000, -20.000000, 2.388466
-7.000000, -19.500000, 2.273686
-7.000000, -19.000000, 2.162286
-7.000000, -18.500000, 2.054266
-7.000000, -18.000000, 1.949624
-7.000000, -17.500000, 1.848358
-7.000000, -17.000000, 1.750465
-7.000000, -16.500000, 1.655943
-7.000000, -16.000000, 1.564785
-7.000000, -15.500000, 1.476988
-7.000000, -15.000000, 1.392542
-7.000000, -14.500000, 1.311438
-7.000000, -14.000000, 1.233664
-7.000000, -13.500000, 1.159205
-7.000000, -13.000000, 1.088043
-7.000000, -12.500000, 1.020156
-7.000000, -12.000000, 0.955518
-7.000000, -11.500000, 0.894099
-7.000000, -11.000000, 0.835865
-7.000000, -10.500000, 0.780777
-7.000000, -10.000000, 0.72879
-7.000000, -9.500000, 0.679856
-7.000000, -9.000000, 0.633922
-7.000000, -8.500000, 0.590929
-7.000000, -8.000000, 0.550816
-7.000000, -7.500000, 0.513519
-7.000000, -7.000000, 0.478971
-7.000000, -6.500000, 0.447103
-7.000000, -6.000000, 0.417848
-7.000000, -5.500000, 0.391138
-7.000000, -5.000000, 0.36691
-7.000000, -4.500000, 0.345101
-7.000000, -4.000000, 0.325658
-7.000000, -3.500000, 0.308529
-7.000000, -3.000000, 0.293671
-7.000000, -2.500000, 0.281049
-7.000000, -2.000000, 0.270635
-7.000000, -1.500000, 0.262409
-7.000000, -1.000000, 0.25636
-7.000000, -0.500000, 0.252484
-7.000000, 0.000000, 0.250785
-7.000000, 0.500000, 0.251275
-7.000000, 1.000000, 0.253973
-7.000000, 1.500000, 0.258904
-7.000000, 2.000000, 0.266099
-7.000000, 2.500000, 0.275595
-7.000000, 3.000000, 0.287432
-7.000000, 3.500000, 0.301656
-7.000000, 4.000000, 0.318315
-7.000000, 4.500000, 0.33746
-7.000000, 5.000000, 0.359143
-7.000000, 5.500000, 0.383418
-7.000000, 6.000000, 0.410339
-7.000000, 6.500000, 0.439958
-7.000000, 7.000000, 0.472329
-7.000000, 7.500000, 0.507502
-7.000000, 8.000000, 0.545526
-7.000000, 8.500000, 0.586449
-7.000000, 9.000000, 0.630313
-7.000000, 9.500000, 0.677162
-7.000000, 10.000000, 0.727032
-7.000000, 10.500000, 0.779961
-7.000000, 11.000000, 0.835979
-7.000000, 11.500000, 0.895117
-7.000000, 12.000000, 0.957402
-7.000000, 12.500000, 1.022857
-7.000000, 13.000000, 1.091505
-7.000000, 13.500000, 1.163363
-7.000000, 14.000000, 1.23845
-7.000000, 14.500000, 1.316779
-7.000000, 15.000000, 1.398365
-7.000000, 15.500000, 1.483218
-7.000000, 16.000000, 1.571349
-7.000000, 16.500000, 1.662768
-7.000000, 17.000000, 1.75748
-7.000000, 17.500000, 1.855495
-7.000000, 18.000000, 1.956819
-7.000000, 18.500000, 2.061457
-7.000000, 19.000000, 2.169415
-7.000000, 19.500000, 2.280699
-7.000000, 20.000000, 2.395315
-7.000000, 20.500000, 2.513267
-7.000000, 21.000000, 2.634561
-7.000000, 21.500000, 2.759203
-7.000000, 22.000000, 2.887199
-7.000000, 22.500000, 3.018555
-7.000000, 23.000000, 3.153279
-7.000000, 23.500000, 3.291377
-7.000000, 24.000000, 3.432858
-7.000000, 24.500000, 3.57773
-7.000000, 25.000000, 3.726002
-7.000000, 25.500000, 3.877684
-7.000000, 26.000000, 4.032787
-7.000000, 26.500000, 4.191321
-7.000000, 27.000000, 4.3533
-7.000000, 27.500000, 4.518735
-7.000000, 28.000000, 4.68764
-7.000000, 28.500000, 4.86003
-7.000000, 29.000000, 5.03592
-7.000000, 29.500000, 5.215326
-7.000000, 30.000000, 5.398265
-7.000000, 30.500000, 5.584756
-7.000000, 31.000000, 5.774816
-7.000000, 31.500000, 5.968465
-7.000000, 32.000000, 6.165724
-7.000000, 32.500000, 6.366615
-7.000000, 33.000000, 6.571161
-7.000000, 33.500000, 6.779383
-7.000000, 34.000000, 6.991308
-7.000000, 34.500000, 7.20696
-7.000000, 35.000000, 7.426367
-7.000000, 35.500000, 7.649554
-7.000000, 36.000000, 7.876552
-7.000000, 36.500000, 8.107389
-7.000000, 37.000000, 8.342097
-7.000000, 37.500000, 8.580707
-7.000000, 38.000000, 8.823252
-7.000000, 38.500000, 9.069766
-7.000000, 39.000000, 9.320285
-7.000000, 39.500000, 9.574845
-7.000000, 40.000000, 9.833484
-7.000000, 40.500000, 10.096241
-7.000000, 41.000000, 10.363156
-7.000000, 41.500000, 10.634272
-7.000000, 42.000000, 10.909631
-7.000000, 42.500000, 11.189278
-6.500000, -42.500000, 11.179825
-6.500000, -42.000000, 10.900002
-6.500000, -41.500000, 10.624459
-6.500000, -41.000000, 10.353153
-6.500000, -40.500000, 10.086038
-6.500000, -40.000000, 9.823073
-6.500000, -39.500000, 9.564218
-6.500000, -39.000000, 9.309432
-6.500000, -38.500000, 9.058679
-6.500000, -38.000000, 8.81192
-6.500000, -37.500000, 8.569121
-6.500000, -37.000000, 8.330246
-6.500000, -36.500000, 8.095263
-6.500000, -36.000000, 7.86414
-6.500000, -35.500000, 7.636846
-6.500000, -35.000000, 7.41335
-6.500000, -34.500000, 7.193625
-6.500000, -34.000000, 6.977642
-6.500000, -33.500000, 6.765375
-6.500000, -33.000000, 6.556798
-6.500000, -32.500000, 6.351887
-6.500000, -32.000000, 6.150619
-6.500000, -31.500000, 5.95297
-6.500000, -31.000000, 5.75892
-6.500000, -30.500000, 5.568448
-6.500000, -30.000000, 5.381534
-6.500000, -29.500000, 5.198161
-6.500000, -29.000000, 5.01831
-6.500000, -28.500000, 4.841965
-6.500000, -28.000000, 4.669111
-6.500000, -27.500000, 4.499733
-6.500000, -27.000000, 4.333818
-6.500000, -26.500000, 4.171352
-6.500000, -26.000000, 4.012324
-6.500000, -25.500000, 3.856724
-6.500000, -25.000000, 3.704541
-6.500000, -24.500000, 3.555767
-6.500000, -24.000000, 3.410394
-6.500000, -23.500000, 3.268413
-6.500000, -23.000000, 3.12982
-6.500000, -22.500000, 2.994609
-6.500000, -22.000000, 2.862774
-6.500000, -21.500000, 2.734312
-6.500000, -21.000000, 2.609219
-6.500000, -20.500000, 2.487491
-6.500000, -20.000000, 2.369128
-6.500000, -19.500000, 2.254126
-6.500000, -19.000000, 2.142483
-6.500000, -18.500000, 2.034198
-6.500000, -18.000000, 1.929269
-6.500000, -17.500000, 1.827693
-6.500000, -17.000000, 1.729468
-6.500000, -16.500000, 1.634591
-6.500000, -16.000000, 1.543057
-6.500000, -15.500000, 1.454861
-6.500000, -15.000000, 1.369995
-6.500000, -14.500000, 1.288452
-6.500000, -14.000000, 1.210218
-6.500000, -13.500000, 1.135282
-6.500000, -13.000000, 1.063626
-6.500000, -12.500000, 0.99523
-6.500000, -12.000000, 0.930071
-6.500000, -11.500000, 0.868122
-6.500000, -11.000000, 0.80935
-6.500000, -10.500000, 0.75372
-6.500000, -10.000000, 0.70119
-6.500000, -9.500000, 0.651717
-6.500000, -9.000000, 0.60525
-6.500000, -8.500000, 0.561736
-6.500000, -8.000000, 0.521117
-6.500000, -7.500000, 0.483332
-6.500000, -7.000000, 0.44832
-6.500000, -6.500000, 0.416016
-6.500000, -6.000000, 0.386355
-6.500000, -5.500000, 0.359273
-6.500000, -5.000000, 0.334709
-6.500000, -4.500000, 0.312603
-6.500000, -4.000000, 0.292902
-6.500000, -3.500000, 0.275556
-6.500000, -3.000000, 0.260522
-6.500000, -2.500000, 0.247765
-6.500000, -2.000000, 0.237256
-6.500000, -1.500000, 0.228975
-6.500000, -1.000000, 0.222909
-6.500000, -0.500000, 0.219053
-6.500000, 0.000000, 0.217412
-6.500000, 0.500000, 0.217994
-6.500000, 1.000000, 0.220817
-6.500000, 1.500000, 0.225907
-6.500000, 2.000000, 0.233291
-6.500000, 2.500000, 0.243006
-6.500000, 3.000000, 0.255091
-6.500000, 3.500000, 0.26959
-6.500000, 4.000000, 0.286549
-6.500000, 4.500000, 0.306017
-6.500000, 5.000000, 0.328045
-6.500000, 5.500000, 0.352683
-6.500000, 6.000000, 0.379984
-6.500000, 6.500000, 0.409999
-6.500000, 7.000000, 0.442777
-6.500000, 7.500000, 0.478368
-6.500000, 8.000000, 0.516818
-6.500000, 8.500000, 0.558171
-6.500000, 9.000000, 0.602469
-6.500000, 9.500000, 0.649753
-6.500000, 10.000000, 0.700057
-6.500000, 10.500000, 0.753416
-6.500000, 11.000000, 0.809861
-6.500000, 11.500000, 0.869419
-6.500000, 12.000000, 0.932116
-6.500000, 12.500000, 0.997974
-6.500000, 13.000000, 1.067013
-6.500000, 13.500000, 1.139252
-6.500000, 14.000000, 1.214707
-6.500000, 14.500000, 1.293392
-6.500000, 15.000000, 1.375318
-6.500000, 15.500000, 1.460498
-6.500000, 16.000000, 1.548941
-6.500000, 16.500000, 1.640654
-6.500000, 17.000000, 1.735647
-6.500000, 17.500000, 1.833926
-6.500000, 18.000000, 1.935498
-6.500000, 18.500000, 2.040368
-6.500000, 19.000000, 2.148543
-6.500000, 19.500000, 2.260027
-6.500000, 20.000000, 2.374826
-6.500000, 20.500000, 2.492946
-6.500000, 21.000000, 2.614393
-6.500000, 21.500000, 2.739173
-6.500000, 22.000000, 2.867292
-6.500000, 22.500000, 2.998756
-6.500000, 23.000000, 3.133573
-6.500000, 23.500000, 3.271751
-6.500000, 24.000000, 3.413298
-6.500000, 24.500000, 3.558223
-6.500000, 25.000000, 3.706534
-6.500000, 25.500000, 3.858244
-6.500000, 26.000000, 4.013361
-6.500000, 26.500000, 4.171899
-6.500000, 27.000000, 4.333869
-6.500000, 27.500000, 4.499285
-6.500000, 28.000000, 4.66816
-6.500000, 28.500000, 4.84051
-6.500000, 29.000000, 5.016349
-6.500000, 29.500000, 5.195695
-6.500000, 30.000000, 5.378565
-6.500000, 30.500000, 5.564977
-6.500000, 31.000000, 5.754951
-6.500000, 31.500000, 5.948505
-6.500000, 32.000000, 6.145661
-6.500000, 32.500000, 6.346442
-6.500000, 33.000000, 6.550869
-6.500000, 33.500000, 6.758966
-6.500000, 34.000000, 6.970758
-6.500000, 34.500000, 7.186272
-6.500000, 35.000000, 7.405533
-6.500000, 35.500000, 7.628569
-6.500000, 36.000000, 7.855409
-6.500000, 36.500000, 8.086083
-6.500000, 37.000000, 8.320622
-6.500000, 37.500000, 8.559058
-6.500000, 38.000000, 8.801423
-6.500000, 38.500000, 9.047753
-6.500000, 39.000000, 9.298082
-6.500000, 39.500000, 9.552448
-6.500000, 40.000000, 9.810888
-6.500000, 40.500000, 10.073441
-6.500000, 41.000000, 10.340149
-6.500000, 41.500000, 10.611052
-6.500000, 42.000000, 10.886195
-6.500000, 42.500000, 11.165621
-6.000000, -42.500000, 11.158542
-6.000000, -42.000000, 10.878956
-6.000000, -41.500000, 10.603646
-6.000000, -41.000000, 10.332569
-6.000000, -40.500000, 10.06568
-6.000000, -40.000000, 9.802938
-6.000000, -39.500000, 9.544302
-6.000000, -39.000000, 9.289731
-6.000000, -38.500000, 9.039189
-6.000000, -38.000000, 8.792637
-6.000000, -37.500000, 8.55004
-6.000000, -37.000000, 8.311364
-6.000000, -36.500000, 8.076575
-6.000000, -36.000000, 7.845641
-6.000000, -35.500000, 7.618531
-6.000000, -35.000000, 7.395214
-6.000000, -34.500000, 7.175662
-6.000000, -34.000000, 6.959846
-6.000000, -33.500000, 6.74774
-6.000000, -33.000000, 6.539318
-6.000000, -32.500000, 6.334555
-6.000000, -32.000000, 6.133428
-6.000000, -31.500000, 5.935913
-6.000000, -31.000000, 5.741988
-6.000000, -30.500000, 5.551634
-6.000000, -30.000000, 5.364829
-6.000000, -29.500000, 5.181555
-6.000000, -29.000000, 5.001794
-6.000000, -28.500000, 4.82553
-6.000000, -28.000000, 4.652745
-6.000000, -27.500000, 4.483425
-6.000000, -27.000000, 4.317557
-6.000000, -26.500000, 4.155125
-6.000000, -26.000000, 3.99612
-6.000000, -25.500000, 3.840528
-6.000000, -25.000000, 3.688339
-6.000000, -24.500000, 3.539545
-6.000000, -24.000000, 3.394136
-6.000000, -23.500000, 3.252104
-6.000000, -23.000000, 3.113443
-6.000000, -22.500000, 2.978146
-6.000000, -22.000000, 2.846208
-6.000000, -21.500000, 2.717624
-6.000000, -21.000000, 2.592389
-6.000000, -20.500000, 2.470501
-6.000000, -20.000000, 2.351956
-6.000000, -19.500000, 2.236751
-6.000000, -19.000000, 2.124885
-6.000000, -18.500000, 2.016354
-6.000000, -18.000000, 1.911156
-6.000000, -17.500000, 1.80929
-6.000000, -17.000000, 1.710752
-6.000000, -16.500000, 1.615539
-6.000000, -16.000000, 1.523646
-6.000000, -15.500000, 1.435069
-6.000000, -15.000000, 1.3498
-6.000000, -14.500000, 1.267832
-6.000000, -14.000000, 1.189154
-6.000000, -13.500000, 1.113754
-6.000000, -13.000000, 1.041616
-6.000000, -12.500000, 0.972722
-6.000000, -12.000000, 0.907051
-6.000000, -11.500000, 0.844578
-6.000000, -11.000000, 0.785273
-6.000000, -10.500000, 0.729104
-6.000000, -10.000000, 0.676033
-6.000000, -9.500000, 0.626019
-6.000000, -9.000000, 0.579015
-6.000000, -8.500000, 0.534973
-6.000000, -8.000000, 0.49384
-6.000000, -7.500000, 0.455558
-6.000000, -7.000000, 0.42007
-6.000000, -6.500000, 0.387315
-6.000000, -6.000000, 0.357232
-6.000000, -5.500000, 0.329761
-6.000000, -5.000000, 0.304842
-6.000000, -4.500000, 0.282421
-6.000000, -4.000000, 0.262444
-6.000000, -3.500000, 0.244863
-6.000000, -3.000000, 0.229637
-6.000000, -2.500000, 0.216731
-6.000000, -2.000000, 0.206114
-6.000000, -1.500000, 0.197768
-6.000000, -1.000000, 0.191678
-6.000000, -0.500000, 0.187838
-6.000000, 0.000000, 0.186251
-6.000000, 0.500000, 0.186926
-6.000000, 1.000000, 0.189878
-6.000000, 1.500000, 0.19513
-6.000000, 2.000000, 0.202711
-6.000000, 2.500000, 0.212654
-6.000000, 3.000000, 0.224997
-6.000000, 3.500000, 0.239781
-6.000000, 4.000000, 0.257051
-6.000000, 4.500000, 0.276853
-6.000000, 5.000000, 0.299236
-6.000000, 5.500000, 0.324248
-6.000000, 6.000000, 0.35194
-6.000000, 6.500000, 0.382359
-6.000000, 7.000000, 0.415553
-6.000000, 7.500000, 0.451569
-6.000000, 8.000000, 0.49045
-6.000000, 8.500000, 0.532239
-6.000000, 9.000000, 0.576975
-6.000000, 9.500000, 0.624696
-6.000000, 10.000000, 0.675435
-6.000000, 10.500000, 0.729225
-6.000000, 11.000000, 0.786094
-6.000000, 11.500000, 0.84607
-6.000000, 12.000000, 0.909175
-6.000000, 12.500000, 0.975431
-6.000000, 13.000000, 1.044857
-6.000000, 13.500000, 1.11747
-6.000000, 14.000000, 1.193285
-6.000000, 14.500000, 1.272316
-6.000000, 15.000000, 1.354574
-6.000000, 15.500000, 1.44007
-6.000000, 16.000000, 1.528813
-6.000000, 16.500000, 1.620812
-6.000000, 17.000000, 1.716073
-6.000000, 17.500000, 1.814604
-6.000000, 18.000000, 1.916412
-6.000000, 18.500000, 2.021501
-6.000000, 19.000000, 2.129879
-6.000000, 19.500000, 2.24155
-6.000000, 20.000000, 2.356521
-6.000000, 20.500000, 2.474796
-6.000000, 21.000000, 2.596383
-6.000000, 21.500000, 2.721288
-6.000000, 22.000000, 2.849516
-6.000000, 22.500000, 2.981076
-6.000000, 23.000000, 3.115975
-6.000000, 23.500000, 3.254221
-6.000000, 24.000000, 3.395822
-6.000000, 24.500000, 3.540787
-6.000000, 25.000000, 3.689128
-6.000000, 25.500000, 3.840854
-6.000000, 26.000000, 3.995976
-6.000000, 26.500000, 4.154507
-6.000000, 27.000000, 4.31646
-6.000000, 27.500000, 4.481848
-6.000000, 28.000000, 4.650685
-6.000000, 28.500000, 4.822986
-6.000000, 29.000000, 4.998768
-6.000000, 29.500000, 5.178048
-6.000000, 30.000000, 5.360842
-6.000000, 30.500000, 5.54717
-6.000000, 31.000000, 5.737052
-6.000000, 31.500000, 5.930506
-6.000000, 32.000000, 6.127555
-6.000000, 32.500000, 6.328221
-6.000000, 33.000000, 6.532527
-6.000000, 33.500000, 6.740497
-6.000000, 34.000000, 6.952155
-6.000000, 34.500000, 7.167528
-6.000000, 35.000000, 7.386643
-6.000000, 35.500000, 7.609527
-6.000000, 36.000000, 7.83621
-6.000000, 36.500000, 8.066721
-6.000000, 37.000000, 8.301092
-6.000000, 37.500000, 8.539355
-6.000000, 38.000000, 8.781543
-6.000000, 38.500000, 9.027691
-6.000000, 39.000000, 9.277834
-6.000000, 39.500000, 9.532009
-6.000000, 40.000000, 9.790254
-6.000000, 40.500000, 10.052609
-6.000000, 41.000000, 10.319113
-6.000000, 41.500000, 10.58981
-6.000000, 42.000000, 10.864742
-6.000000, 42.500000, 11.143954
-5.500000, -42.500000, 11.139177
-5.500000, -42.000000, 10.859818
-5.500000, -41.500000, 10.584733
-5.500000, -41.000000, 10.313877
-5.500000, -40.500000, 10.047207
-5.500000, -40.000000, 9.784681
-5.500000, -39.500000, 9.526257
-5.500000, -39.000000, 9.271895
-5.500000, -38.500000, 9.021559
-5.500000, -38.000000, 8.775209
-5.500000, -37.500000, 8.532811
-5.500000, -37.000000, 8.294329
-5.500000, -36.500000, 8.059731
-5.500000, -36.000000, 7.828983
-5.500000, -35.500000, 7.602054
-5.500000, -35.000000, 7.378915
-5.500000, -34.500000, 7.159534
-5.500000, -34.000000, 6.943886
-5.500000, -33.500000, 6.731941
-5.500000, -33.000000, 6.523675
-5.500000, -32.500000, 6.319062
-5.500000, -32.000000, 6.118078
-5.500000, -31.500000, 5.920699
-5.500000, -31.000000, 5.726904
-5.500000, -30.500000, 5.536671
-5.500000, -30.000000, 5.34998
-5.500000, -29.500000, 5.166812
-5.500000, -29.000000, 4.987148
-5.500000, -28.500000, 4.810971
-5.500000, -28.000000, 4.638263
-5.500000, -27.500000, 4.469011
-5.500000, -27.000000, 4.303198
-5.500000, -26.500000, 4.140812
-5.500000, -26.000000, 3.981839
-5.500000, -25.500000, 3.826267
-5.500000, -25.000000, 3.674086
-5.500000, -24.500000, 3.525284
-5.500000, -24.000000, 3.379853
-5.500000, -23.500000, 3.237785
-5.500000, -23.000000, 3.099071
-5.500000, -22.500000, 2.963704
-5.500000, -22.000000, 2.831679
-5.500000, -21.500000, 2.70299
-5.500000, -21.000000, 2.577632
-5.500000, -20.500000, 2.455601
-5.500000, -20.000000, 2.336893
-5.500000, -19.500000, 2.221505
-5.500000, -19.000000, 2.109434
-5.500000, -18.500000, 2.000676
-5.500000, -18.000000, 1.895231
-5.500000, -17.500000, 1.793093
-5.500000, -17.000000, 1.694262
-5.500000, -16.500000, 1.598732
-5.500000, -16.000000, 1.5065
-5.500000, -15.500000, 1.41756
-5.500000, -15.000000, 1.331907
-5.500000, -14.500000, 1.249533
-5.500000, -14.000000, 1.170427
-5.500000, -13.500000, 1.094579
-5.500000, -13.000000, 1.021974
-5.500000, -12.500000, 0.952597
-5.500000, -12.000000, 0.886426
-5.500000, -11.500000, 0.82344
-5.500000, -11.000000, 0.763611
-5.500000, -10.500000, 0.70691
-5.500000, -10.000000, 0.653302
-5.500000, -9.500000, 0.60275
-5.500000, -9.000000, 0.555212
-5.500000, -8.500000, 0.510641
-5.500000, -8.000000, 0.468989
-5.500000, -7.500000, 0.430203
-5.500000, -7.000000, 0.394231
-5.500000, -6.500000, 0.361015
-5.500000, -6.000000, 0.330498
-5.500000, -5.500000, 0.302624
-5.500000, -5.000000, 0.277338
-5.500000, -4.500000, 0.254586
-5.500000, -4.000000, 0.234318
-5.500000, -3.500000, 0.216488
-5.500000, -3.000000, 0.201055
-5.500000, -2.500000, 0.187985
-5.500000, -2.000000, 0.17725
-5.500000, -1.500000, 0.168828
-5.500000, -1.000000, 0.162706
-5.500000, -0.500000, 0.158876
-5.500000, 0.000000, 0.157341
-5.500000, 0.500000, 0.158107
-5.500000, 1.000000, 0.161188
-5.500000, 1.500000, 0.166607
-5.500000, 2.000000, 0.174389
-5.500000, 2.500000, 0.184566
-5.500000, 3.000000, 0.197172
-5.500000, 3.500000, 0.212249
-5.500000, 4.000000, 0.229837
-5.500000, 4.500000, 0.249981
-5.500000, 5.000000, 0.272727
-5.500000, 5.500000, 0.298122
-5.500000, 6.000000, 0.326211
-5.500000, 6.500000, 0.35704
-5.500000, 7.000000, 0.390656
-5.500000, 7.500000, 0.4271
-5.500000, 8.000000, 0.466416
-5.500000, 8.500000, 0.508642
-5.500000, 9.000000, 0.553817
-5.500000, 9.500000, 0.601974
-5.500000, 10.000000, 0.653147
-5.500000, 10.500000, 0.707365
-5.500000, 11.000000, 0.764656
-5.500000, 11.500000, 0.825043
-5.500000, 12.000000, 0.888551
-5.500000, 12.500000, 0.955198
-5.500000, 13.000000, 1.025002
-5.500000, 13.500000, 1.097981
-5.500000, 14.000000, 1.174147
-5.500000, 14.500000, 1.253514
-5.500000, 15.000000, 1.336093
-5.500000, 15.500000, 1.421894
-5.500000, 16.000000, 1.510926
-5.500000, 16.500000, 1.603197
-5.500000, 17.000000, 1.698714
-5.500000, 17.500000, 1.797485
-5.500000, 18.000000, 1.899515
-5.500000, 18.500000, 2.004811
-5.500000, 19.000000, 2.113378
-5.500000, 19.500000, 2.225223
-5.500000, 20.000000, 2.340352
-5.500000, 20.500000, 2.45877
-5.500000, 21.000000, 2.580484
-5.500000, 21.500000, 2.705501
-5.500000, 22.000000, 2.833827
-5.500000, 22.500000, 2.96547
-5.500000, 23.000000, 3.100439
-5.500000, 23.500000, 3.238741
-5.500000, 24.000000, 3.380385
-5.500000, 24.500000, 3.525382
-5.500000, 25.000000, 3.673741
-5.500000, 25.500000, 3.825473
-5.500000, 26.000000, 3.980592
-5.500000, 26.500000, 4.139107
-5.500000, 27.000000, 4.301034
-5.500000, 27.500000, 4.466386
-5.500000, 28.000000, 4.635177
-5.500000, 28.500000, 4.807424
-5.500000, 29.000000, 4.983143
-5.500000, 29.500000, 5.16235
-5.500000, 30.000000, 5.345064
-5.500000, 30.500000, 5.531304
-5.500000, 31.000000, 5.721089
-5.500000, 31.500000, 5.91444
-5.500000, 32.000000, 6.11138
-5.500000, 32.500000, 6.311929
-5.500000, 33.000000, 6.516111
-5.500000, 33.500000, 6.723952
-5.500000, 34.000000, 6.935475
-5.500000, 34.500000, 7.150708
-5.500000, 35.000000, 7.369676
-5.500000, 35.500000, 7.592409
-5.500000, 36.000000, 7.818936
-5.500000, 36.500000, 8.049287
-5.500000, 37.000000, 8.283493
-5.500000, 37.500000, 8.521586
-5.500000, 38.000000, 8.7636
-5.500000, 38.500000, 9.009569
-5.500000, 39.000000, 9.25953
-5.500000, 39.500000, 9.513519
-5.500000, 40.000000, 9.771575
-5.500000, 40.500000, 10.033736
-5.500000, 41.000000, 10.300044
-5.500000, 41.500000, 10.57054
-5.500000, 42.000000, 10.845269
-5.500000, 42.500000, 11.124274
-5.000000, -42.500000, 11.121736
-5.000000, -42.000000, 10.842594
-5.000000, -41.500000, 10.567724
-5.000000, -41.000000, 10.297081
-5.000000, -40.500000, 10.030621
-5.000000, -40.000000, 9.768302
-5.000000, -39.500000, 9.510083
-5.000000, -39.000000, 9.255923
-5.000000, -38.500000, 9.005785
-5.000000, -38.000000, 8.759631
-5.000000, -37.500000, 8.517426
-5.000000, -37.000000, 8.279134
-5.000000, -36.500000, 8.044721
-5.000000, -36.000000, 7.814155
-5.000000, -35.500000, 7.587404
-5.000000, -35.000000, 7.364438
-5.000000, -34.500000, 7.145228
-5.000000, -34.000000, 6.929744
-5.000000, -33.500000, 6.71796
-5.000000, -33.000000, 6.509849
-5.000000, -32.500000, 6.305385
-5.000000, -32.000000, 6.104545
-5.000000, -31.500000, 5.907304
-5.000000, -31.000000, 5.71364
-5.000000, -30.500000, 5.523532
-5.000000, -30.000000, 5.336958
-5.000000, -29.500000, 5.1539
-5.000000, -29.000000, 4.974337
-5.000000, -28.500000, 4.798253
-5.000000, -28.000000, 4.625629
-5.000000, -27.500000, 4.456451
-5.000000, -27.000000, 4.290703
-5.000000, -26.500000, 4.12837
-5.000000, -26.000000, 3.969439
-5.000000, -25.500000, 3.813897
-5.000000, -25.000000, 3.661734
-5.000000, -24.500000, 3.512937
-5.000000, -24.000000, 3.367497
-5.000000, -23.500000, 3.225405
-5.000000, -23.000000, 3.086652
-5.000000, -22.500000, 2.951231
-5.000000, -22.000000, 2.819135
-5.000000, -21.500000, 2.690357
-5.000000, -21.000000, 2.564893
-5.000000, -20.500000, 2.442736
-5.000000, -20.000000, 2.323883
-5.000000, -19.500000, 2.208331
-5.000000, -19.000000, 2.096074
-5.000000, -18.500000, 1.98711
-5.000000, -18.000000, 1.881436
-5.000000, -17.500000, 1.779048
-5.000000, -17.000000, 1.679943
-5.000000, -16.500000, 1.584118
-5.000000, -16.000000, 1.491567
-5.000000, -15.500000, 1.402286
-5.000000, -15.000000, 1.316268
-5.000000, -14.500000, 1.233507
-5.000000, -14.000000, 1.153993
-5.000000, -13.500000, 1.077715
-5.000000, -13.000000, 1.004662
-5.000000, -12.500000, 0.934816
-5.000000, -12.000000, 0.868162
-5.000000, -11.500000, 0.804676
-5.000000, -11.000000, 0.744337
-5.000000, -10.500000, 0.687115
-5.000000, -10.000000, 0.63298
-5.000000, -9.500000, 0.581898
-5.000000, -9.000000, 0.533829
-5.000000, -8.500000, 0.488732
-5.000000, -8.000000, 0.446563
-5.000000, -7.500000, 0.407273
-5.000000, -7.000000, 0.370813
-5.000000, -6.500000, 0.33713
-5.000000, -6.000000, 0.306173
-5.000000, -5.500000, 0.277888
-5.000000, -5.000000, 0.252223
-5.000000, -4.500000, 0.229129
-5.000000, -4.000000, 0.208557
-5.000000, -3.500000, 0.190465
-5.000000, -3.000000, 0.174814
-5.000000, -2.500000, 0.161569
-5.000000, -2.000000, 0.150704
-5.000000, -1.500000, 0.142197
-5.000000, -1.000000, 0.136035
-5.000000, -0.500000, 0.13221
-5.000000, 0.000000, 0.130721
-5.000000, 0.500000, 0.131575
-5.000000, 1.000000, 0.134786
-5.000000, 1.500000, 0.140371
-5.000000, 2.000000, 0.148355
-5.000000, 2.500000, 0.158768
-5.000000, 3.000000, 0.171643
-5.000000, 3.500000, 0.187016
-5.000000, 4.000000, 0.204927
-5.000000, 4.500000, 0.225418
-5.000000, 5.000000, 0.248531
-5.000000, 5.500000, 0.274311
-5.000000, 6.000000, 0.302801
-5.000000, 6.500000, 0.334044
-5.000000, 7.000000, 0.368082
-5.000000, 7.500000, 0.404956
-5.000000, 8.000000, 0.444707
-5.000000, 8.500000, 0.487369
-5.000000, 9.000000, 0.53298
-5.000000, 9.500000, 0.581571
-5.000000, 10.000000, 0.633173
-5.000000, 10.500000, 0.687814
-5.000000, 11.000000, 0.745519
-5.000000, 11.500000, 0.806312
-5.000000, 12.000000, 0.870214
-5.000000, 12.500000, 0.937243
-5.000000, 13.000000, 1.007416
-5.000000, 13.500000, 1.080749
-5.000000, 14.000000, 1.157256
-5.000000, 14.500000, 1.236947
-5.000000, 15.000000, 1.319835
-5.000000, 15.500000, 1.405929
-5.000000, 16.000000, 1.495237
-5.000000, 16.500000, 1.587767
-5.000000, 17.000000, 1.683527
-5.000000, 17.500000, 1.782523
-5.000000, 18.000000, 1.884763
-5.000000, 18.500000, 1.990252
-5.000000, 19.000000, 2.098996
-5.000000, 19.500000, 2.211002
-5.000000, 20.000000, 2.326275
-5.000000, 20.500000, 2.444823
-5.000000, 21.000000, 2.566652
-5.000000, 21.500000, 2.691768
-5.000000, 22.000000, 2.82018
-5.000000, 22.500000, 2.951896
-5.000000, 23.000000, 3.086922
-5.000000, 23.500000, 3.22527
-5.000000, 24.000000, 3.366947
-5.000000, 24.500000, 3.511965
-5.000000, 25.000000, 3.660333
-5.000000, 25.500000, 3.812064
-5.000000, 26.000000, 3.96717
-5.000000, 26.500000, 4.125663
-5.000000, 27.000000, 4.287556
-5.000000, 27.500000, 4.452866
-5.000000, 28.000000, 4.621606
-5.000000, 28.500000, 4.793792
-5.000000, 29.000000, 4.969442
-5.000000, 29.500000, 5.148572
-5.000000, 30.000000, 5.331202
-5.000000, 30.500000, 5.51735
-5.000000, 31.000000, 5.707037
-5.000000, 31.500000, 5.900283
-5.000000, 32.000000, 6.097111
-5.000000, 32.500000, 6.297542
-5.000000, 33.000000, 6.501601
-5.000000, 33.500000, 6.709313
-5.000000, 34.000000, 6.920702
-5.000000, 34.500000, 7.135795
-5.000000, 35.000000, 7.354619
-5.000000, 35.500000, 7.577203
-5.000000, 36.000000, 7.803577
-5.000000, 36.500000, 8.033769
-5.000000, 37.000000, 8.267813
-5.000000, 37.500000, 8.505741
-5.000000, 38.000000, 8.747586
-5.000000, 38.500000, 8.993382
-5.000000, 39.000000, 9.243166
-5.000000, 39.500000, 9.496976
-5.000000, 40.000000, 9.754848
-5.000000, 40.500000, 10.016823
-5.000000, 41.000000, 10.282941
-5.000000, 41.500000, 10.553246
-5.000000, 42.000000, 10.827779
-5.000000, 42.500000, 11.106586
-4.500000, -42.500000, 11.106234
-4.500000, -42.000000, 10.827298
-4.500000, -41.500000, 10.552632
-4.500000, -41.000000, 10.282191
-4.500000, -40.500000, 10.015931
-4.500000, -40.000000, 9.753809
-4.500000, -39.500000, 9.495785
-4.500000, -39.000000, 9.241819
-4.500000, -38.500000, 8.991871
-4.500000, -38.000000, 8.745906
-4.500000, -37.500000, 8.503885
-4.500000, -37.000000, 8.265776
-4.500000, -36.500000, 8.031542
-4.500000, -36.000000, 7.801153
-4.500000, -35.500000, 7.574575
-4.500000, -35.000000, 7.351778
-4.500000, -34.500000, 7.132733
-4.500000, -34.000000, 6.917411
-4.500000, -33.500000, 6.705784
-4.500000, -33.000000, 6.497826
-4.500000, -32.500000, 6.29351
-4.500000, -32.000000, 6.092813
-4.500000, -31.500000, 5.895709
-4.500000, -31.000000, 5.702177
-4.500000, -30.500000, 5.512194
-4.500000, -30.000000, 5.325739
-4.500000, -29.500000, 5.142792
-4.500000, -29.000000, 4.963334
-4.500000, -28.500000, 4.787347
-4.500000, -28.000000, 4.614812
-4.500000, -27.500000, 4.445714
-4.500000, -27.000000, 4.280036
-4.500000, -26.500000, 4.117763
-4.500000, -26.000000, 3.958882
-4.500000, -25.500000, 3.80338
-4.500000, -25.000000, 3.651243
-4.500000, -24.500000, 3.502462
-4.500000, -24.000000, 3.357024
-4.500000, -23.500000, 3.21492
-4.500000, -23.000000, 3.076141
-4.500000, -22.500000, 2.940679
-4.500000, -22.000000, 2.808526
-4.500000, -21.500000, 2.679675
-4.500000, -21.000000, 2.55412
-4.500000, -20.500000, 2.431855
-4.500000, -20.000000, 2.312875
-4.500000, -19.500000, 2.197176
-4.500000, -19.000000, 2.084753
-4.500000, -18.500000, 1.975602
-4.500000, -18.000000, 1.869719
-4.500000, -17.500000, 1.767101
-4.500000, -17.000000, 1.667744
-4.500000, -16.500000, 1.571644
-4.500000, -16.000000, 1.478795
-4.500000, -15.500000, 1.389194
-4.500000, -15.000000, 1.302833
-4.500000, -14.500000, 1.219706
-4.500000, -14.000000, 1.139805
-4.500000, -13.500000, 1.063119
-4.500000, -13.000000, 0.989636
-4.500000, -12.500000, 0.919343
-4.500000, -12.000000, 0.852223
-4.500000, -11.500000, 0.788256
-4.500000, -11.000000, 0.727422
-4.500000, -10.500000, 0.669694
-4.500000, -10.000000, 0.615046
-4.500000, -9.500000, 0.563444
-4.500000, -9.000000, 0.514855
-4.500000, -8.500000, 0.469241
-4.500000, -8.000000, 0.42656
-4.500000, -7.500000, 0.386769
-4.500000, -7.000000, 0.349823
-4.500000, -6.500000, 0.315674
-4.500000, -6.000000, 0.284273
-4.500000, -5.500000, 0.255572
-4.500000, -5.000000, 0.229523
-4.500000, -4.500000, 0.206079
-4.500000, -4.000000, 0.185196
-4.500000, -3.500000, 0.166833
-4.500000, -3.000000, 0.150953
-4.500000, -2.500000, 0.137524
-4.500000, -2.000000, 0.12652
-4.500000, -1.500000, 0.11792
-4.500000, -1.000000, 0.111709
-4.500000, -0.500000, 0.107881
-4.500000, 0.000000, 0.106434
-4.500000, 0.500000, 0.107372
-4.500000, 1.000000, 0.110708
-4.500000, 1.500000, 0.116457
-4.500000, 2.000000, 0.124643
-4.500000, 2.500000, 0.135292
-4.500000, 3.000000, 0.148435
-4.500000, 3.500000, 0.164106
-4.500000, 4.000000, 0.182341
-4.500000, 4.500000, 0.203179
-4.500000, 5.000000, 0.226661
-4.500000, 5.500000, 0.252826
-4.500000, 6.000000, 0.281716
-4.500000, 6.500000, 0.313371
-4.500000, 7.000000, 0.347831
-4.500000, 7.500000, 0.385133
-4.500000, 8.000000, 0.425314
-4.500000, 8.500000, 0.468409
-4.500000, 9.000000, 0.51445
-4.500000, 9.500000, 0.563469
-4.500000, 10.000000, 0.615493
-4.500000, 10.500000, 0.670549
-4.500000, 11.000000, 0.72866
-4.500000, 11.500000, 0.789848
-4.500000, 12.000000, 0.854134
-4.500000, 12.500000, 0.921534
-4.500000, 13.000000, 0.992065
-4.500000, 13.500000, 1.06574
-4.500000, 14.000000, 1.142574
-4.500000, 14.500000, 1.222578
-4.500000, 15.000000, 1.305761
-4.500000, 15.500000, 1.392134
-4.500000, 16.000000, 1.481704
-4.500000, 16.500000, 1.57448
-4.500000, 17.000000, 1.670469
-4.500000, 17.500000, 1.769677
-4.500000, 18.000000, 1.872113
-4.500000, 18.500000, 1.977781
-4.500000, 19.000000, 2.086689
-4.500000, 19.500000, 2.198842
-4.500000, 20.000000, 2.314248
-4.500000, 20.500000, 2.432913
-4.500000, 21.000000, 2.554844
-4.500000, 21.500000, 2.680049
-4.500000, 22.000000, 2.808535
-4.500000, 22.500000, 2.940312
-4.500000, 23.000000, 3.075387
-4.500000, 23.500000, 3.21377
-4.500000, 24.000000, 3.355471
-4.500000, 24.500000, 3.500501
-4.500000, 25.000000, 3.648871
-4.500000, 25.500000, 3.800592
-4.500000, 26.000000, 3.955678
-4.500000, 26.500000, 4.114141
-4.500000, 27.000000, 4.275996
-4.500000, 27.500000, 4.441258
-4.500000, 28.000000, 4.609941
-4.500000, 28.500000, 4.782063
-4.500000, 29.000000, 4.957641
-4.500000, 29.500000, 5.136691
-4.500000, 30.000000, 5.319234
-4.500000, 30.500000, 5.505289
-4.500000, 31.000000, 5.694876
-4.500000, 31.500000, 5.888016
-4.500000, 32.000000, 6.084732
-4.500000, 32.500000, 6.285046
-4.500000, 33.000000, 6.488982
-4.500000, 33.500000, 6.696566
-4.500000, 34.000000, 6.907822
-4.500000, 34.500000, 7.122778
-4.500000, 35.000000, 7.341461
-4.500000, 35.500000, 7.5639
-4.500000, 36.000000, 7.790124
