16.500000, -11.500000, 2.34111
16.500000, -11.000000, 2.274734
16.500000, -10.500000, 2.211353
16.500000, -10.000000, 2.150962
16.500000, -9.500000, 2.093553
16.500000, -9.000000, 2.03912
16.500000, -8.500000, 1.987659
16.500000, -8.000000, 1.939162
16.500000, -7.500000, 1.893626
16.500000, -7.000000, 1.851046
16.500000, -6.500000, 1.811417
16.500000, -6.000000, 1.774734
16.500000, -5.500000, 1.740995
16.500000, -5.000000, 1.710196
16.500000, -4.500000, 1.682334
16.500000, -4.000000, 1.657405
16.500000, -3.500000, 1.635407
16.500000, -3.000000, 1.616338
16.500000, -2.500000, 1.600196
16.500000, -2.000000, 1.58698
16.500000, -1.500000, 1.576687
16.500000, -1.000000, 1.569317
16.500000, -0.500000, 1.56487
16.500000, 0.000000, 1.563344
16.500000, 0.500000, 1.564739
16.500000, 1.000000, 1.569056
16.500000, 1.500000, 1.576295
16.500000, 2.000000, 1.586457
16.500000, 2.500000, 1.599543
16.500000, 3.000000, 1.615554
16.500000, 3.500000, 1.634492
16.500000, 4.000000, 1.656359
16.500000, 4.500000, 1.681157
16.500000, 5.000000, 1.708888
16.500000, 5.500000, 1.739556
16.500000, 6.000000, 1.773164
16.500000, 6.500000, 1.809714
16.500000, 7.000000, 1.849212
16.500000, 7.500000, 1.89166
16.500000, 8.000000, 1.937064
16.500000, 8.500000, 1.985428
16.500000, 9.000000, 2.036757
16.500000, 9.500000, 2.091057
16.500000, 10.000000, 2.148333
16.500000, 10.500000, 2.208591
16.500000, 11.000000, 2.271838
16.500000, 11.500000, 2.33808
16.500000, 12.000000, 2.407324
16.500000, 12.500000, 2.479578
16.500000, 13.000000, 2.554849
16.500000, 13.500000, 2.633146
16.500000, 14.000000, 2.714477
16.500000, 14.500000, 2.79885
16.500000, 15.000000, 2.886276
16.500000, 15.500000, 2.976762
16.500000, 16.000000, 3.07032
16.500000, 16.500000, 3.166959
16.500000, 17.000000, 3.26669
16.500000, 17.500000, 3.369524
16.500000, 18.000000, 3.475473
16.500000, 18.500000, 3.584549
16.500000, 19.000000, 3.696763
16.500000, 19.500000, 3.812128
16.500000, 20.000000, 3.930658
16.500000, 20.500000, 4.052366
16.500000, 21.000000, 4.177267
16.500000, 21.500000, 4.305373
16.500000, 22.000000, 4.436701
16.500000, 22.500000, 4.571266
16.500000, 23.000000, 4.709083
16.500000, 23.500000, 4.850169
16.500000, 24.000000, 4.994541
16.500000, 24.500000, 5.142216
16.500000, 25.000000, 5.293212
16.500000, 25.500000, 5.447547
16.500000, 26.000000, 5.605241
16.500000, 26.500000, 5.766313
16.500000, 27.000000, 5.930783
16.500000, 27.500000, 6.098671
16.500000, 28.000000, 6.27
16.500000, 28.500000, 6.44479
16.500000, 29.000000, 6.623065
16.500000, 29.500000, 6.804847
16.500000, 30.000000, 6.990161
16.500000, 30.500000, 7.179031
16.500000, 31.000000, 7.371483
16.500000, 31.500000, 7.567542
16.500000, 32.000000, 7.767234
16.500000, 32.500000, 7.970589
16.500000, 33.000000, 8.177633
16.500000, 33.500000, 8.388396
16.500000, 34.000000, 8.602908
16.500000, 34.500000, 8.8212
16.500000, 35.000000, 9.043303
16.500000, 35.500000, 9.26925
16.500000, 36.000000, 9.499075
16.500000, 36.500000, 9.732812
16.500000, 37.000000, 9.970496
16.500000, 37.500000, 10.212165
16.500000, 38.000000, 10.457856
16.500000, 38.500000, 10.707607
16.500000, 39.000000, 10.961459
16.500000, 39.500000, 11.219453
16.500000, 40.000000, 11.481631
16.500000, 40.500000, 11.748037
16.500000, 41.000000, 12.018715
16.500000, 41.500000, 12.293713
16.500000, 42.000000, 12.573078
16.500000, 42.500000, 12.856859
17.000000, -42.500000, 12.981995
17.000000, -42.000000, 12.697587
17.000000, -41.500000, 12.417607
17.000000, -41.000000, 12.142006
17.000000, -40.500000, 11.870736
17.000000, -40.000000, 11.603749
17.000000, -39.500000, 11.341002
17.000000, -39.000000, 11.082449
17.000000, -38.500000, 10.828048
17.000000, -38.000000, 10.577757
17.000000, -37.500000, 10.331538
17.000000, -37.000000, 10.08935
17.000000, -36.500000, 9.851155
17.000000, -36.000000, 9.616917
17.000000, -35.500000, 9.3866
17.000000, -35.000000, 9.16017
17.000000, -34.500000, 8.937592
17.000000, -34.000000, 8.718834
17.000000, -33.500000, 8.503863
17.000000, -33.000000, 8.29265
17.000000, -32.500000, 8.085163
17.000000, -32.000000, 7.881374
17.000000, -31.500000, 7.681253
17.000000, -31.000000, 7.484774
17.000000, -30.500000, 7.29191
17.000000, -30.000000, 7.102634
17.000000, -29.500000, 6.916921
17.000000, -29.000000, 6.734746
17.000000, -28.500000, 6.556085
17.000000, -28.000000, 6.380916
17.000000, -27.500000, 6.209214
17.000000, -27.000000, 6.040959
17.000000, -26.500000, 5.876129
17.000000, -26.000000, 5.714703
17.000000, -25.500000, 5.556661
17.000000, -25.000000, 5.401982
17.000000, -24.500000, 5.250649
17.000000, -24.000000, 5.102643
17.000000, -23.500000, 4.957945
17.000000, -23.000000, 4.816539
17.000000, -22.500000, 4.678406
17.000000, -22.000000, 4.543532
17.000000, -21.500000, 4.411899
17.000000, -21.000000, 4.283493
17.000000, -20.500000, 4.158299
17.000000, -20.000000, 4.036301
17.000000, -19.500000, 3.917486
17.000000, -19.000000, 3.801841
17.000000, -18.500000, 3.689352
17.000000, -18.000000, 3.580006
17.000000, -17.500000, 3.473791
17.000000, -17.000000, 3.370695
17.000000, -16.500000, 3.270707
17.000000, -16.000000, 3.173815
17.000000, -15.500000, 3.08001
17.000000, -15.000000, 2.989279
17.000000, -14.500000, 2.901615
17.000000, -14.000000, 2.817006
17.000000, -13.500000, 2.735444
17.000000, -13.000000, 2.65692
17.000000, -12.500000, 2.581426
17.000000, -12.000000, 2.508953
17.000000, -11.500000, 2.439493
17.000000, -11.000000, 2.37304
17.000000, -10.500000, 2.309586
17.000000, -10.000000, 2.249125
17.000000, -9.500000, 2.19165
17.000000, -9.000000, 2.137154
17.000000, -8.500000, 2.085633
17.000000, -8.000000, 2.037081
17.000000, -7.500000, 1.991493
17.000000, -7.000000, 1.948863
17.000000, -6.500000, 1.909188
17.000000, -6.000000, 1.872464
17.000000, -5.500000, 1.838687
17.000000, -5.000000, 1.807852
17.000000, -4.500000, 1.779958
17.000000, -4.000000, 1.755
17.000000, -3.500000, 1.732977
17.000000, -3.000000, 1.713887
17.000000, -2.500000, 1.697727
17.000000, -2.000000, 1.684495
17.000000, -1.500000, 1.67419
17.000000, -1.000000, 1.666812
17.000000, -0.500000, 1.66236
17.000000, 0.000000, 1.660832
17.000000, 0.500000, 1.662229
17.000000, 1.000000, 1.666551
17.000000, 1.500000, 1.673798
17.000000, 2.000000, 1.683972
17.000000, 2.500000, 1.697073
17.000000, 3.000000, 1.713102
17.000000, 3.500000, 1.732062
17.000000, 4.000000, 1.753954
17.000000, 4.500000, 1.77878
17.000000, 5.000000, 1.806543
17.000000, 5.500000, 1.837246
17.000000, 6.000000, 1.870892
17.000000, 6.500000, 1.907484
17.000000, 7.000000, 1.947027
17.000000, 7.500000, 1.989524
17.000000, 8.000000, 2.03498
17.000000, 8.500000, 2.0834
17.000000, 9.000000, 2.134788
17.000000, 9.500000, 2.189151
17.000000, 10.000000, 2.246493
17.000000, 10.500000, 2.306821
17.000000, 11.000000, 2.370141
17.000000, 11.500000, 2.43646
17.000000, 12.000000, 2.505784
17.000000, 12.500000, 2.578123
17.000000, 13.000000, 2.653482
17.000000, 13.500000, 2.73187
17.000000, 14.000000, 2.813296
17.000000, 14.500000, 2.897768
17.000000, 15.000000, 2.985296
17.000000, 15.500000, 3.075889
17.000000, 16.000000, 3.169558
17.000000, 16.500000, 3.266311
17.000000, 17.000000, 3.366161
17.000000, 17.500000, 3.469117
17.000000, 18.000000, 3.575192
17.000000, 18.500000, 3.684398
17.000000, 19.000000, 3.796747
17.000000, 19.500000, 3.912251
17.000000, 20.000000, 4.030924
17.000000, 20.500000, 4.152779
17.000000, 21.000000, 4.27783
17.000000, 21.500000, 4.406092
17.000000, 22.000000, 4.53758
17.000000, 22.500000, 4.67231
17.000000, 23.000000, 4.810296
17.000000, 23.500000, 4.951556
17.000000, 24.000000, 5.096106
17.000000, 24.500000, 5.243964
17.000000, 25.000000, 5.395148
17.000000, 25.500000, 5.549676
17.000000, 26.000000, 5.707568
17.000000, 26.500000, 5.868843
17.000000, 27.000000, 6.03352
17.000000, 27.500000, 6.201622
17.000000, 28.000000, 6.373169
17.000000, 28.500000, 6.548183
17.000000, 29.000000, 6.726687
17.000000, 29.500000, 6.908704
17.000000, 30.000000, 7.094259
17.000000, 30.500000, 7.283375
17.000000, 31.000000, 7.476079
17.000000, 31.500000, 7.672395
17.000000, 32.000000, 7.872352
17.000000, 32.500000, 8.075977
17.000000, 33.000000, 8.283298
17.000000, 33.500000, 8.494345
17.000000, 34.000000, 8.709146
17.000000, 34.500000, 8.927735
17.000000, 35.000000, 9.150141
17.000000, 35.500000, 9.376399
17.000000, 36.000000, 9.606541
17.000000, 36.500000, 9.840603
17.000000, 37.000000, 10.07862
17.000000, 37.500000, 10.320629
17.000000, 38.000000, 10.566668
17.000000, 38.500000, 10.816775
17.000000, 39.000000, 11.070991
17.000000, 39.500000, 11.329358
17.000000, 40.000000, 11.591917
17.000000, 40.500000, 11.858713
17.000000, 41.000000, 12.129791
17.000000, 41.500000, 12.405198
17.000000, 42.000000, 12.684981
17.000000, 42.500000, 12.96919
17.500000, -42.500000, 13.097893
17.500000, -42.000000, 12.813041
17.500000, -41.500000, 12.532628
17.500000, -41.000000, 12.256604
17.500000, -40.500000, 11.98492
17.500000, -40.000000, 11.717529
17.500000, -39.500000, 11.454386
17.500000, -39.000000, 11.195447
17.500000, -38.500000, 10.940669
17.500000, -38.000000, 10.69001
17.500000, -37.500000, 10.44343
17.500000, -37.000000, 10.20089
17.500000, -36.500000, 9.962351
17.500000, -36.000000, 9.727776
17.500000, -35.500000, 9.497131
17.500000, -35.000000, 9.270379
17.500000, -34.500000, 9.047487
17.500000, -34.000000, 8.828422
17.500000, -33.500000, 8.613151
17.500000, -33.000000, 8.401644
17.500000, -32.500000, 8.193871
17.500000, -32.000000, 7.989802
17.500000, -31.500000, 7.789408
17.500000, -31.000000, 7.592662
17.500000, -30.500000, 7.399537
17.500000, -30.000000, 7.210006
17.500000, -29.500000, 7.024044
17.500000, -29.000000, 6.841626
17.500000, -28.500000, 6.662728
17.500000, -28.000000, 6.487327
17.500000, -27.500000, 6.315399
17.500000, -27.000000, 6.146924
17.500000, -26.500000, 5.981878
17.500000, -26.000000, 5.820242
17.500000, -25.500000, 5.661995
17.500000, -25.000000, 5.507117
17.500000, -24.500000, 5.35559
17.500000, -24.000000, 5.207394
17.500000, -23.500000, 5.062511
17.500000, -23.000000, 4.920925
17.500000, -22.500000, 4.782617
17.500000, -22.000000, 4.647573
17.500000, -21.500000, 4.515774
17.500000, -21.000000, 4.387207
17.500000, -20.500000, 4.261856
17.500000, -20.000000, 4.139706
17.500000, -19.500000, 4.020743
17.500000, -19.000000, 3.904955
17.500000, -18.500000, 3.792326
17.500000, -18.000000, 3.682845
17.500000, -17.500000, 3.5765
17.500000, -17.000000, 3.473277
17.500000, -16.500000, 3.373167
17.500000, -16.000000, 3.276157
17.500000, -15.500000, 3.182237
17.500000, -15.000000, 3.091396
17.500000, -14.500000, 3.003625
17.500000, -14.000000, 2.918914
17.500000, -13.500000, 2.837253
17.500000, -13.000000, 2.758635
17.500000, -12.500000, 2.683049
17.500000, -12.000000, 2.610489
17.500000, -11.500000, 2.540946
17.500000, -11.000000, 2.474414
17.500000, -10.500000, 2.410884
17.500000, -10.000000, 2.35035
17.500000, -9.500000, 2.292806
17.500000, -9.000000, 2.238246
17.500000, -8.500000, 2.186664
17.500000, -8.000000, 2.138054
17.500000, -7.500000, 2.092411
17.500000, -7.000000, 2.049731
17.500000, -6.500000, 2.010009
17.500000, -6.000000, 1.973242
17.500000, -5.500000, 1.939424
17.500000, -5.000000, 1.908553
17.500000, -4.500000, 1.880626
17.500000, -4.000000, 1.855639
17.500000, -3.500000, 1.83359
17.500000, -3.000000, 1.814477
17.500000, -2.500000, 1.798298
17.500000, -2.000000, 1.78505
17.500000, -1.500000, 1.774734
17.500000, -1.000000, 1.767347
17.500000, -0.500000, 1.762889
17.500000, 0.000000, 1.761359
17.500000, 0.500000, 1.762758
17.500000, 1.000000, 1.767085
17.500000, 1.500000, 1.774341
17.500000, 2.000000, 1.784527
17.500000, 2.500000, 1.797643
17.500000, 3.000000, 1.813691
17.500000, 3.500000, 1.832673
17.500000, 4.000000, 1.854591
17.500000, 4.500000, 1.879446
17.500000, 5.000000, 1.907242
17.500000, 5.500000, 1.937982
17.500000, 6.000000, 1.971668
17.500000, 6.500000, 2.008303
17.500000, 7.000000, 2.047893
17.500000, 7.500000, 2.090441
17.500000, 8.000000, 2.135951
17.500000, 8.500000, 2.184428
17.500000, 9.000000, 2.235877
17.500000, 9.500000, 2.290304
17.500000, 10.000000, 2.347715
17.500000, 10.500000, 2.408115
17.500000, 11.000000, 2.471511
17.500000, 11.500000, 2.537909
17.500000, 12.000000, 2.607317
17.500000, 12.500000, 2.679742
17.500000, 13.000000, 2.755192
17.500000, 13.500000, 2.833675
17.500000, 14.000000, 2.915199
17.500000, 14.500000, 2.999774
17.500000, 15.000000, 3.087408
17.500000, 15.500000, 3.178111
17.500000, 16.000000, 3.271894
17.500000, 16.500000, 3.368765
17.500000, 17.000000, 3.468737
17.500000, 17.500000, 3.57182
17.500000, 18.000000, 3.678026
17.500000, 18.500000, 3.787366
17.500000, 19.000000, 3.899854
17.500000, 19.500000, 4.015501
17.500000, 20.000000, 4.134322
17.500000, 20.500000, 4.256329
17.500000, 21.000000, 4.381537
17.500000, 21.500000, 4.50996
17.500000, 22.000000, 4.641614
17.500000, 22.500000, 4.776513
17.500000, 23.000000, 4.914674
17.500000, 23.500000, 5.056114
17.500000, 24.000000, 5.200848
17.500000, 24.500000, 5.348896
17.500000, 25.000000, 5.500274
17.500000, 25.500000, 5.655002
17.500000, 26.000000, 5.813098
17.500000, 26.500000, 5.974582
17.500000, 27.000000, 6.139475
17.500000, 27.500000, 6.307797
17.500000, 28.000000, 6.47957
17.500000, 28.500000, 6.654815
17.500000, 29.000000, 6.833556
17.500000, 29.500000, 7.015816
17.500000, 30.000000, 7.201619
17.500000, 30.500000, 7.39099
17.500000, 31.000000, 7.583955
17.500000, 31.500000, 7.780538
17.500000, 32.000000, 7.980768
17.500000, 32.500000, 8.184673
17.500000, 33.000000, 8.39228
17.500000, 33.500000, 8.603619
17.500000, 34.000000, 8.818721
17.500000, 34.500000, 9.037616
17.500000, 35.000000, 9.260336
17.500000, 35.500000, 9.486915
17.500000, 36.000000, 9.717386
17.500000, 36.500000, 9.951784
17.500000, 37.000000, 10.190144
17.500000, 37.500000, 10.432505
17.500000, 38.000000, 10.678904
17.500000, 38.500000, 10.92938
17.500000, 39.000000, 11.183973
17.500000, 39.500000, 11.442725
17.500000, 40.000000, 11.705679
17.500000, 40.500000, 11.972879
17.500000, 41.000000, 12.24437
17.500000, 41.500000, 12.5202
17.500000, 42.000000, 12.800416
17.500000, 42.500000, 13.085068
18.000000, -42.500000, 13.217354
18.000000, -42.000000, 12.932044
18.000000, -41.500000, 12.651183
18.000000, -41.000000, 12.374721
18.000000, -40.500000, 12.102609
18.000000, -40.000000, 11.834801
18.000000, -39.500000, 11.571249
18.000000, -39.000000, 11.311911
18.000000, -38.500000, 11.056743
18.000000, -38.000000, 10.805703
18.000000, -37.500000, 10.55875
18.000000, -37.000000, 10.315846
18.000000, -36.500000, 10.076951
18.000000, -36.000000, 9.842029
18.000000, -35.500000, 9.611043
18.000000, -35.000000, 9.383959
18.000000, -34.500000, 9.160743
18.000000, -34.000000, 8.94136
18.000000, -33.500000, 8.72578
18.000000, -33.000000, 8.51397
18.000000, -32.500000, 8.305901
18.000000, -32.000000, 8.101542
18.000000, -31.500000, 7.900866
18.000000, -31.000000, 7.703844
18.000000, -30.500000, 7.510449
18.000000, -30.000000, 7.320654
18.000000, -29.500000, 7.134435
18.000000, -29.000000, 6.951766
18.000000, -28.500000, 6.772623
18.000000, -28.000000, 6.596982
18.000000, -27.500000, 6.424821
18.000000, -27.000000, 6.256118
18.000000, -26.500000, 6.09085
18.000000, -26.000000, 5.928997
18.000000, -25.500000, 5.770538
18.000000, -25.000000, 5.615454
18.000000, -24.500000, 5.463726
18.000000, -24.000000, 5.315334
18.000000, -23.500000, 5.170261
18.000000, -23.000000, 5.028488
18.000000, -22.500000, 4.89
18.000000, -22.000000, 4.754779
18.000000, -21.500000, 4.62281
18.000000, -21.000000, 4.494076
18.000000, -20.500000, 4.368563
18.000000, -20.000000, 4.246256
18.000000, -19.500000, 4.127141
18.000000, -19.000000, 4.011204
18.000000, -18.500000, 3.898431
18.000000, -18.000000, 3.788811
18.000000, -17.500000, 3.68233
18.000000, -17.000000, 3.578977
18.000000, -16.500000, 3.47874
18.000000, -16.000000, 3.381608
18.000000, -15.500000, 3.28757
18.000000, -15.000000, 3.196615
18.000000, -14.500000, 3.108734
18.000000, -14.000000, 3.023917
18.000000, -13.500000, 2.942155
18.000000, -13.000000, 2.863438
18.000000, -12.500000, 2.787759
18.000000, -12.000000, 2.715109
18.000000, -11.500000, 2.64548
18.000000, -11.000000, 2.578865
18.000000, -10.500000, 2.515257
18.000000, -10.000000, 2.454649
18.000000, -9.500000, 2.397034
18.000000, -9.000000, 2.342406
18.000000, -8.500000, 2.290761
18.000000, -8.000000, 2.242091
18.000000, -7.500000, 2.196393
18.000000, -7.000000, 2.153661
18.000000, -6.500000, 2.11389
18.000000, -6.000000, 2.077078
18.000000, -5.500000, 2.043219
18.000000, -5.000000, 2.01231
18.000000, -4.500000, 1.984349
18.000000, -4.000000, 1.959332
18.000000, -3.500000, 1.937256
18.000000, -3.000000, 1.91812
18.000000, -2.500000, 1.901921
18.000000, -2.000000, 1.888657
18.000000, -1.500000, 1.878328
18.000000, -1.000000, 1.870932
18.000000, -0.500000, 1.866469
18.000000, 0.000000, 1.864937
18.000000, 0.500000, 1.866338
18.000000, 1.000000, 1.87067
18.000000, 1.500000, 1.877935
18.000000, 2.000000, 1.888133
18.000000, 2.500000, 1.901265
18.000000, 3.000000, 1.917333
18.000000, 3.500000, 1.936338
18.000000, 4.000000, 1.958282
18.000000, 4.500000, 1.983168
18.000000, 5.000000, 2.010998
18.000000, 5.500000, 2.041775
18.000000, 6.000000, 2.075502
18.000000, 6.500000, 2.112182
18.000000, 7.000000, 2.15182
18.000000, 7.500000, 2.19442
18.000000, 8.000000, 2.239986
18.000000, 8.500000, 2.288522
18.000000, 9.000000, 2.340035
18.000000, 9.500000, 2.394529
18.000000, 10.000000, 2.45201
18.000000, 10.500000, 2.512484
18.000000, 11.000000, 2.575958
18.000000, 11.500000, 2.642439
18.000000, 12.000000, 2.711933
18.000000, 12.500000, 2.784448
18.000000, 13.000000, 2.859991
18.000000, 13.500000, 2.938572
18.000000, 14.000000, 3.020198
18.000000, 14.500000, 3.104878
18.000000, 15.000000, 3.192622
18.000000, 15.500000, 3.283439
18.000000, 16.000000, 3.37734
18.000000, 16.500000, 3.474333
18.000000, 17.000000, 3.574432
18.000000, 17.500000, 3.677645
18.000000, 18.000000, 3.783986
18.000000, 18.500000, 3.893465
18.000000, 19.000000, 4.006096
18.000000, 19.500000, 4.121892
18.000000, 20.000000, 4.240865
18.000000, 20.500000, 4.363029
18.000000, 21.000000, 4.488398
18.000000, 21.500000, 4.616988
18.000000, 22.000000, 4.748813
18.000000, 22.500000, 4.883888
18.000000, 23.000000, 5.02223
18.000000, 23.500000, 5.163855
18.000000, 24.000000, 5.30878
18.000000, 24.500000, 5.457023
18.000000, 25.000000, 5.608602
18.000000, 25.500000, 5.763536
18.000000, 26.000000, 5.921843
18.000000, 26.500000, 6.083544
18.000000, 27.000000, 6.248659
18.000000, 27.500000, 6.417209
18.000000, 28.000000, 6.589215
18.000000, 28.500000, 6.764699
18.000000, 29.000000, 6.943685
18.000000, 29.500000, 7.126196
18.000000, 30.000000, 7.312256
18.000000, 30.500000, 7.50189
18.000000, 31.000000, 7.695124
18.000000, 31.500000, 7.891983
18.000000, 32.000000, 8.092496
18.000000, 32.500000, 8.296689
18.000000, 33.000000, 8.504592
18.000000, 33.500000, 8.716234
18.000000, 34.000000, 8.931645
18.000000, 34.500000, 9.150857
18.000000, 35.000000, 9.373902
18.000000, 35.500000, 9.600812
18.000000, 36.000000, 9.831623
18.000000, 36.500000, 10.066368
18.000000, 37.000000, 10.305085
18.000000, 37.500000, 10.547809
18.000000, 38.000000, 10.79458
18.000000, 38.500000, 11.045437
18.000000, 39.000000, 11.300419
18.000000, 39.500000, 11.55957
18.000000, 40.000000, 11.822932
18.000000, 40.500000, 12.09055
18.000000, 41.000000, 12.362468
18.000000, 41.500000, 12.638735
18.000000, 42.000000, 12.919398
18.000000, 42.500000, 13.204508
18.500000, -42.500000, 13.340397
18.500000, -42.000000, 13.054613
18.500000, -41.500000, 12.773289
18.500000, -41.000000, 12.496374
18.500000, -40.500000, 12.223821
18.500000, -40.000000, 11.95558
18.500000, -39.500000, 11.691607
18.500000, -39.000000, 11.431857
18.500000, -38.500000, 11.176286
18.500000, -38.000000, 10.924852
18.500000, -37.500000, 10.677514
18.500000, -37.000000, 10.434234
18.500000, -36.500000, 10.194971
18.500000, -36.000000, 9.95969
18.500000, -35.500000, 9.728353
18.500000, -35.000000, 9.500926
18.500000, -34.500000, 9.277374
18.500000, -34.000000, 9.057664
18.500000, -33.500000, 8.841763
18.500000, -33.000000, 8.62964
18.500000, -32.500000, 8.421265
18.500000, -32.000000, 8.216608
18.500000, -31.500000, 8.01564
18.500000, -31.000000, 7.818333
18.500000, -30.500000, 7.624659
18.500000, -30.000000, 7.434593
18.500000, -29.500000, 7.248108
18.500000, -29.000000, 7.06518
18.500000, -28.500000, 6.885784
18.500000, -28.000000, 6.709896
18.500000, -27.500000, 6.537494
18.500000, -27.000000, 6.368555
18.500000, -26.500000, 6.203057
18.500000, -26.000000, 6.04098
18.500000, -25.500000, 5.882303
18.500000, -25.000000, 5.727006
18.500000, -24.500000, 5.57507
18.500000, -24.000000, 5.426476
18.500000, -23.500000, 5.281206
18.500000, -23.000000, 5.139242
18.500000, -22.500000, 5.000567
18.500000, -22.000000, 4.865164
18.500000, -21.500000, 4.733018
18.500000, -21.000000, 4.604112
18.500000, -20.500000, 4.478432
18.500000, -20.000000, 4.355963
18.500000, -19.500000, 4.23669
18.500000, -19.000000, 4.1206
18.500000, -18.500000, 4.007679
18.500000, -18.000000, 3.897915
18.500000, -17.500000, 3.791295
18.500000, -17.000000, 3.687807
18.500000, -16.500000, 3.587439
18.500000, -16.000000, 3.490181
18.500000, -15.500000, 3.396021
18.500000, -15.000000, 3.304949
18.500000, -14.500000, 3.216954
18.500000, -14.000000, 3.132028
18.500000, -13.500000, 3.05016
18.500000, -13.000000, 2.971343
18.500000, -12.500000, 2.895567
18.500000, -12.000000, 2.822824
18.500000, -11.500000, 2.753106
18.500000, -11.000000, 2.686406
18.500000, -10.500000, 2.622717
18.500000, -10.000000, 2.562032
18.500000, -9.500000, 2.504344
18.500000, -9.000000, 2.449647
18.500000, -8.500000, 2.397936
18.500000, -8.000000, 2.349205
18.500000, -7.500000, 2.303449
18.500000, -7.000000, 2.260663
18.500000, -6.500000, 2.220842
18.500000, -6.000000, 2.183983
18.500000, -5.500000, 2.150082
18.500000, -5.000000, 2.119135
18.500000, -4.500000, 2.091138
18.500000, -4.000000, 2.066089
18.500000, -3.500000, 2.043986
18.500000, -3.000000, 2.024826
18.500000, -2.500000, 2.008606
18.500000, -2.000000, 1.995326
18.500000, -1.500000, 1.984984
18.500000, -1.000000, 1.977579
18.500000, -0.500000, 1.97311
18.500000, 0.000000, 1.971577
18.500000, 0.500000, 1.972979
18.500000, 1.000000, 1.977317
18.500000, 1.500000, 1.984591
18.500000, 2.000000, 1.994801
18.500000, 2.500000, 2.00795
18.500000, 3.000000, 2.024038
18.500000, 3.500000, 2.043067
18.500000, 4.000000, 2.065039
18.500000, 4.500000, 2.089956
18.500000, 5.000000, 2.11782
18.500000, 5.500000, 2.148636
18.500000, 6.000000, 2.182405
18.500000, 6.500000, 2.219132
18.500000, 7.000000, 2.25882
18.500000, 7.500000, 2.301473
18.500000, 8.000000, 2.347097
18.500000, 8.500000, 2.395695
18.500000, 9.000000, 2.447272
18.500000, 9.500000, 2.501836
18.500000, 10.000000, 2.55939
18.500000, 10.500000, 2.619941
18.500000, 11.000000, 2.683496
18.500000, 11.500000, 2.750061
18.500000, 12.000000, 2.819643
18.500000, 12.500000, 2.892251
18.500000, 13.000000, 2.967892
18.500000, 13.500000, 3.046573
18.500000, 14.000000, 3.128304
18.500000, 14.500000, 3.213093
18.500000, 15.000000, 3.300951
18.500000, 15.500000, 3.391885
18.500000, 16.000000, 3.485907
18.500000, 16.500000, 3.583027
18.500000, 17.000000, 3.683255
18.500000, 17.500000, 3.786604
18.500000, 18.000000, 3.893083
18.500000, 18.500000, 4.002707
18.500000, 19.000000, 4.115486
18.500000, 19.500000, 4.231434
18.500000, 20.000000, 4.350565
18.500000, 20.500000, 4.472891
18.500000, 21.000000, 4.598427
18.500000, 21.500000, 4.727188
18.500000, 22.000000, 4.85919
18.500000, 22.500000, 4.994446
18.500000, 23.000000, 5.132975
18.500000, 23.500000, 5.274791
18.500000, 24.000000, 5.419913
18.500000, 24.500000, 5.568359
18.500000, 25.000000, 5.720145
18.500000, 25.500000, 5.875291
18.500000, 26.000000, 6.033817
18.500000, 26.500000, 6.195741
18.500000, 27.000000, 6.361086
18.500000, 27.500000, 6.52987
18.500000, 28.000000, 6.702117
18.500000, 28.500000, 6.877849
18.500000, 29.000000, 7.057088
18.500000, 29.500000, 7.239858
18.500000, 30.000000, 7.426183
18.500000, 30.500000, 7.616089
18.500000, 31.000000, 7.8096
18.500000, 31.500000, 8.006745
18.500000, 32.000000, 8.207549
18.500000, 32.500000, 8.41204
18.500000, 33.000000, 8.620249
18.500000, 33.500000, 8.832203
18.500000, 34.000000, 9.047934
18.500000, 34.500000, 9.267474
18.500000, 35.000000, 9.490853
18.500000, 35.500000, 9.718107
18.500000, 36.000000, 9.949268
18.500000, 36.500000, 10.184372
18.500000, 37.000000, 10.423456
18.500000, 37.500000, 10.666556
18.500000, 38.000000, 10.913711
18.500000, 38.500000, 11.164961
18.500000, 39.000000, 11.420347
18.500000, 39.500000, 11.679909
18.500000, 40.000000, 11.943693
18.500000, 40.500000, 12.211742
18.500000, 41.000000, 12.484101
18.500000, 41.500000, 12.76082
18.500000, 42.000000, 13.041946
18.500000, 42.500000, 13.327529
19.000000, -42.500000, 13.467038
19.000000, -42.000000, 13.180765
19.000000, -41.500000, 12.898963
19.000000, -41.000000, 12.621581
19.000000, -40.500000, 12.348571
19.000000, -40.000000, 12.079885
19.000000, -39.500000, 11.815476
19.000000, -39.000000, 11.5553
19.000000, -38.500000, 11.299313
19.000000, -38.000000, 11.047472
19.000000, -37.500000, 10.799738
19.000000, -37.000000, 10.556069
19.000000, -36.500000, 10.316427
19.000000, -36.000000, 10.080775
19.000000, -35.500000, 9.849076
19.000000, -35.000000, 9.621294
19.000000, -34.500000, 9.397396
19.000000, -34.000000, 9.177348
19.000000, -33.500000, 8.961116
19.000000, -33.000000, 8.748671
19.000000, -32.500000, 8.53998
19.000000, -32.000000, 8.335015
19.000000, -31.500000, 8.133745
19.000000, -31.000000, 7.936144
19.000000, -30.500000, 7.742183
19.000000, -30.000000, 7.551836
19.000000, -29.500000, 7.365077
19.000000, -29.000000, 7.181881
19.000000, -28.500000, 7.002224
19.000000, -28.000000, 6.826081
19.000000, -27.500000, 6.65343
19.000000, -27.000000, 6.484248
19.000000, -26.500000, 6.318514
19.000000, -26.000000, 6.156206
19.000000, -25.500000, 5.997303
19.000000, -25.000000, 5.841787
19.000000, -24.500000, 5.689636
19.000000, -24.000000, 5.540834
19.000000, -23.500000, 5.39536
19.000000, -23.000000, 5.253198
19.000000, -22.500000, 5.114331
19.000000, -22.000000, 4.978741
19.000000, -21.500000, 4.846412
19.000000, -21.000000, 4.717329
19.000000, -20.500000, 4.591476
19.000000, -20.000000, 4.46884
19.000000, -19.500000, 4.349404
19.000000, -19.000000, 4.233156
19.000000, -18.500000, 4.120082
19.000000, -18.000000, 4.01017
19.000000, -17.500000, 3.903406
19.000000, -17.000000, 3.799779
19.000000, -16.500000, 3.699276
19.000000, -16.000000, 3.601888
19.000000, -15.500000, 3.507602
19.000000, -15.000000, 3.416408
19.000000, -14.500000, 3.328297
19.000000, -14.000000, 3.243258
19.000000, -13.500000, 3.161282
19.000000, -13.000000, 3.08236
19.000000, -12.500000, 3.006484
19.000000, -12.000000, 2.933645
19.000000, -11.500000, 2.863836
19.000000, -11.000000, 2.797048
19.000000, -10.500000, 2.733275
19.000000, -10.000000, 2.672511
19.000000, -9.500000, 2.614747
19.000000, -9.000000, 2.55998
19.000000, -8.500000, 2.508201
19.000000, -8.000000, 2.459407
19.000000, -7.500000, 2.413591
19.000000, -7.000000, 2.370749
19.000000, -6.500000, 2.330877
19.000000, -6.000000, 2.29397
19.000000, -5.500000, 2.260025
19.000000, -5.000000, 2.229038
19.000000, -4.500000, 2.201005
19.000000, -4.000000, 2.175924
19.000000, -3.500000, 2.153792
19.000000, -3.000000, 2.134607
19.000000, -2.500000, 2.118366
19.000000, -2.000000, 2.105069
19.000000, -1.500000, 2.094714
19.000000, -1.000000, 2.087299
19.000000, -0.500000, 2.082824
19.000000, 0.000000, 2.081289
19.000000, 0.500000, 2.082693
19.000000, 1.000000, 2.087036
19.000000, 1.500000, 2.09432
19.000000, 2.000000, 2.104544
19.000000, 2.500000, 2.117709
19.000000, 3.000000, 2.133818
19.000000, 3.500000, 2.152872
19.000000, 4.000000, 2.174872
19.000000, 4.500000, 2.199821
19.000000, 5.000000, 2.227722
19.000000, 5.500000, 2.258577
19.000000, 6.000000, 2.29239
19.000000, 6.500000, 2.329165
19.000000, 7.000000, 2.368904
19.000000, 7.500000, 2.411613
19.000000, 8.000000, 2.457296
19.000000, 8.500000, 2.505957
19.000000, 9.000000, 2.557602
19.000000, 9.500000, 2.612236
19.000000, 10.000000, 2.669865
19.000000, 10.500000, 2.730496
19.000000, 11.000000, 2.794134
19.000000, 11.500000, 2.860787
19.000000, 12.000000, 2.930461
19.000000, 12.500000, 3.003164
19.000000, 13.000000, 3.078904
19.000000, 13.500000, 3.15769
19.000000, 14.000000, 3.239529
19.000000, 14.500000, 3.324431
19.000000, 15.000000, 3.412405
19.000000, 15.500000, 3.503461
19.000000, 16.000000, 3.597608
19.000000, 16.500000, 3.694858
19.000000, 17.000000, 3.795221
19.000000, 17.500000, 3.898708
19.000000, 18.000000, 4.005332
19.000000, 18.500000, 4.115103
19.000000, 19.000000, 4.228035
19.000000, 19.500000, 4.344141
19.000000, 20.000000, 4.463434
19.000000, 20.500000, 4.585927
19.000000, 21.000000, 4.711636
19.000000, 21.500000, 4.840574
19.000000, 22.000000, 4.972758
19.000000, 22.500000, 5.108202
19.000000, 23.000000, 5.246922
19.000000, 23.500000, 5.388937
19.000000, 24.000000, 5.534262
19.000000, 24.500000, 5.682915
19.000000, 25.000000, 5.834916
19.000000, 25.500000, 5.990281
19.000000, 26.000000, 6.149032
19.000000, 26.500000, 6.311187
19.000000, 27.000000, 6.476768
19.000000, 27.500000, 6.645795
19.000000, 28.000000, 6.818291
19.000000, 28.500000, 6.994277
19.000000, 29.000000, 7.173777
19.000000, 29.500000, 7.356814
19.000000, 30.000000, 7.543414
19.000000, 30.500000, 7.7336
19.000000, 31.000000, 7.927398
19.000000, 31.500000, 8.124837
19.000000, 32.000000, 8.325942
19.000000, 32.500000, 8.530741
19.000000, 33.000000, 8.739265
19.000000, 33.500000, 8.951542
19.000000, 34.000000, 9.167603
19.000000, 34.500000, 9.387481
19.000000, 35.000000, 9.611206
19.000000, 35.500000, 9.838813
19.000000, 36.000000, 10.070336
19.000000, 36.500000, 10.305811
19.000000, 37.000000, 10.545274
19.000000, 37.500000, 10.788762
19.000000, 38.000000, 11.036314
19.000000, 38.500000, 11.28797
19.000000, 39.000000, 11.543771
19.000000, 39.500000, 11.803759
19.000000, 40.000000, 12.067978
19.000000, 40.500000, 12.336472
19.000000, 41.000000, 12.609288
19.000000, 41.500000, 12.886473
19.000000, 42.000000, 13.168076
19.000000, 42.500000, 13.454149
19.500000, -42.500000, 13.597297
19.500000, -42.000000, 13.310518
19.500000, -41.500000, 13.028223
19.500000, -41.000000, 12.75036
19.500000, -40.500000, 12.476879
19.500000, -40.000000, 12.207732
19.500000, -39.500000, 11.942874
19.500000, -39.000000, 11.682259
19.500000, -38.500000, 11.425842
19.500000, -38.000000, 11.173582
19.500000, -37.500000, 10.925438
19.500000, -37.000000, 10.681368
19.500000, -36.500000, 10.441335
19.500000, -36.000000, 10.2053
19.500000, -35.500000, 9.973227
19.500000, -35.000000, 9.74508
19.500000, -34.500000, 9.520825
19.500000, -34.000000, 9.300427
19.500000, -33.500000, 9.083855
19.500000, -33.000000, 8.871077
19.500000, -32.500000, 8.66206
19.500000, -32.000000, 8.456777
19.500000, -31.500000, 8.255197
19.500000, -31.000000, 8.057292
19.500000, -30.500000, 7.863034
19.500000, -30.000000, 7.672398
19.500000, -29.500000, 7.485356
19.500000, -29.000000, 7.301884
19.500000, -28.500000, 7.121958
19.500000, -28.000000, 6.945552
19.500000, -27.500000, 6.772644
19.500000, -27.000000, 6.603212
19.500000, -26.500000, 6.437233
19.500000, -26.000000, 6.274687
19.500000, -25.500000, 6.115552
19.500000, -25.000000, 5.959809
19.500000, -24.500000, 5.807438
19.500000, -24.000000, 5.65842
19.500000, -23.500000, 5.512737
19.500000, -23.000000, 5.370371
19.500000, -22.500000, 5.231305
19.500000, -22.000000, 5.095521
19.500000, -21.500000, 4.963005
19.500000, -21.000000, 4.833739
19.500000, -20.500000, 4.707708
19.500000, -20.000000, 4.584899
19.500000, -19.500000, 4.465296
19.500000, -19.000000, 4.348885
19.500000, -18.500000, 4.235653
19.500000, -18.000000, 4.125588
19.500000, -17.500000, 4.018676
19.500000, -17.000000, 3.914905
19.500000, -16.500000, 3.814264
19.500000, -16.000000, 3.716741
19.500000, -15.500000, 3.622325
19.500000, -15.000000, 3.531007
19.500000, -14.500000, 3.442774
19.500000, -14.000000, 3.357619
19.500000, -13.500000, 3.275531
19.500000, -13.000000, 3.196502
19.500000, -12.500000, 3.120523
19.500000, -12.000000, 3.047585
19.500000, -11.500000, 2.977682
19.500000, -11.000000, 2.910804
19.500000, -10.500000, 2.846945
19.500000, -10.000000, 2.786098
19.500000, -9.500000, 2.728257
19.500000, -9.000000, 2.673416
19.500000, -8.500000, 2.621568
19.500000, -8.000000, 2.572708
19.500000, -7.500000, 2.526831
19.500000, -7.000000, 2.483932
19.500000, -6.500000, 2.444007
19.500000, -6.000000, 2.407051
19.500000, -5.500000, 2.37306
19.500000, -5.000000, 2.342031
19.500000, -4.500000, 2.313961
19.500000, -4.000000, 2.288847
19.500000, -3.500000, 2.266685
19.500000, -3.000000, 2.247475
19.500000, -2.500000, 2.231213
19.500000, -2.000000, 2.217898
19.500000, -1.500000, 2.207529
19.500000, -1.000000, 2.200104
19.500000, -0.500000, 2.195624
19.500000, 0.000000, 2.194086
19.500000, 0.500000, 2.195492
19.500000, 1.000000, 2.199841
19.500000, 1.500000, 2.207134
19.500000, 2.000000, 2.217372
19.500000, 2.500000, 2.230555
19.500000, 3.000000, 2.246685
19.500000, 3.500000, 2.265764
19.500000, 4.000000, 2.287793
19.500000, 4.500000, 2.312776
19.500000, 5.000000, 2.340714
19.500000, 5.500000, 2.37161
19.500000, 6.000000, 2.405468
19.500000, 6.500000, 2.442292
19.500000, 7.000000, 2.482084
19.500000, 7.500000, 2.52485
19.500000, 8.000000, 2.570594
19.500000, 8.500000, 2.619321
19.500000, 9.000000, 2.671035
19.500000, 9.500000, 2.725743
19.500000, 10.000000, 2.78345
19.500000, 10.500000, 2.844162
19.500000, 11.000000, 2.907886
19.500000, 11.500000, 2.974628
19.500000, 12.000000, 3.044397
19.500000, 12.500000, 3.117199
19.500000, 13.000000, 3.193042
19.500000, 13.500000, 3.271935
19.500000, 14.000000, 3.353885
19.500000, 14.500000, 3.438903
19.500000, 15.000000, 3.526998
19.500000, 15.500000, 3.618178
19.500000, 16.000000, 3.712455
19.500000, 16.500000, 3.809839
19.500000, 17.000000, 3.910341
19.500000, 17.500000, 4.013971
19.500000, 18.000000, 4.120743
19.500000, 18.500000, 4.230667
19.500000, 19.000000, 4.343757
19.500000, 19.500000, 4.460025
19.500000, 20.000000, 4.579486
19.500000, 20.500000, 4.702152
19.500000, 21.000000, 4.828038
19.500000, 21.500000, 4.957159
19.500000, 22.000000, 5.08953
19.500000, 22.500000, 5.225167
19.500000, 23.000000, 5.364086
19.500000, 23.500000, 5.506304
19.500000, 24.000000, 5.651839
19.500000, 24.500000, 5.800707
19.500000, 25.000000, 5.952928
19.500000, 25.500000, 6.10852
19.500000, 26.000000, 6.267503
19.500000, 26.500000, 6.429896
19.500000, 27.000000, 6.595721
19.500000, 27.500000, 6.764998
19.500000, 28.000000, 6.93775
19.500000, 28.500000, 7.113999
19.500000, 29.000000, 7.293768
19.500000, 29.500000, 7.477081
19.500000, 30.000000, 7.663963
19.500000, 30.500000, 7.854438
19.500000, 31.000000, 8.048533
19.500000, 31.500000, 8.246274
19.500000, 32.000000, 8.44769
19.500000, 32.500000, 8.652807
19.500000, 33.000000, 8.861656
19.500000, 33.500000, 9.074266
19.500000, 34.000000, 9.290668
19.500000, 34.500000, 9.510894
19.500000, 35.000000, 9.734976
19.500000, 35.500000, 9.962948
19.500000, 36.000000, 10.194845
19.500000, 36.500000, 10.430702
19.500000, 37.000000, 10.670555
19.500000, 37.500000, 10.914444
19.500000, 38.000000, 11.162405
19.500000, 38.500000, 11.414481
19.500000, 39.000000, 11.67071
19.500000, 39.500000, 11.931137
19.500000, 40.000000, 12.195805
19.500000, 40.500000, 12.464759
19.500000, 41.000000, 12.738045
19.500000, 41.500000, 13.015711
19.500000, 42.000000, 13.297808
19.500000, 42.500000, 13.584385
20.000000, -42.500000, 13.731193
20.000000, -42.000000, 13.443893
20.000000, -41.500000, 13.161089
20.000000, -41.000000, 12.882728
20.000000, -40.500000, 12.608761
20.000000, -40.000000, 12.339141
20.000000, -39.500000, 12.073819
20.000000, -39.000000, 11.81275
20.000000, -38.500000, 11.555891
20.000000, -38.000000, 11.303198
20.000000, -37.500000, 11.054631
20.000000, -37.000000, 10.810148
20.000000, -36.500000, 10.569711
20.000000, -36.000000, 10.333282
20.000000, -35.500000, 10.100824
20.000000, -35.000000, 9.8723
20.000000, -34.500000, 9.647676
20.000000, -34.000000, 9.426919
20.000000, -33.500000, 9.209995
20.000000, -33.000000, 8.996873
20.000000, -32.500000, 8.787521
20.000000, -32.000000, 8.58191
20.000000, -31.500000, 8.38001
20.000000, -31.000000, 8.181792
20.000000, -30.500000, 7.987229
20.000000, -30.000000, 7.796294
20.000000, -29.500000, 7.608961
20.000000, -29.000000, 7.425205
20.000000, -28.500000, 7.245
20.000000, -28.000000, 7.068323
20.000000, -27.500000, 6.895151
20.000000, -27.000000, 6.725461
20.000000, -26.500000, 6.55923
20.000000, -26.000000, 6.396438
20.000000, -25.500000, 6.237064
20.000000, -25.000000, 6.081087
20.000000, -24.500000, 5.928489
20.000000, -24.000000, 5.779249
20.000000, -23.500000, 5.63335
20.000000, -23.000000, 5.490774
20.000000, -22.500000, 5.351503
20.000000, -22.000000, 5.21552
20.000000, -21.500000, 5.08281
20.000000, -21.000000, 4.953355
20.000000, -20.500000, 4.827142
20.000000, -20.000000, 4.704154
20.000000, -19.500000, 4.584378
20.000000, -19.000000, 4.4678
20.000000, -18.500000, 4.354406
20.000000, -18.000000, 4.244183
20.000000, -17.500000, 4.137118
20.000000, -17.000000, 4.033199
20.000000, -16.500000, 3.932415
20.000000, -16.000000, 3.834754
20.000000, -15.500000, 3.740204
20.000000, -15.000000, 3.648757
20.000000, -14.500000, 3.5604
20.000000, -14.000000, 3.475125
20.000000, -13.500000, 3.392922
20.000000, -13.000000, 3.313782
20.000000, -12.500000, 3.237697
20.000000, -12.000000, 3.164658
20.000000, -11.500000, 3.094656
20.000000, -11.000000, 3.027686
20.000000, -10.500000, 2.963738
20.000000, -10.000000, 2.902807
20.000000, -9.500000, 2.844886
20.000000, -9.000000, 2.789969
20.000000, -8.500000, 2.738049
20.000000, -8.000000, 2.689122
20.000000, -7.500000, 2.643182
20.000000, -7.000000, 2.600224
20.000000, -6.500000, 2.560243
20.000000, -6.000000, 2.523236
20.000000, -5.500000, 2.489199
20.000000, -5.000000, 2.458128
20.000000, -4.500000, 2.430019
20.000000, -4.000000, 2.40487
20.000000, -3.500000, 2.382679
20.000000, -3.000000, 2.363442
20.000000, -2.500000, 2.347158
20.000000, -2.000000, 2.333825
20.000000, -1.500000, 2.323441
20.000000, -1.000000, 2.316007
20.000000, -0.500000, 2.31152
20.000000, 0.000000, 2.30998
20.000000, 0.500000, 2.311388
20.000000, 1.000000, 2.315743
20.000000, 1.500000, 2.323046
20.000000, 2.000000, 2.333298
20.000000, 2.500000, 2.346499
20.000000, 3.000000, 2.362651
20.000000, 3.500000, 2.381756
20.000000, 4.000000, 2.403816
20.000000, 4.500000, 2.428832
20.000000, 5.000000, 2.456809
20.000000, 5.500000, 2.487747
20.000000, 6.000000, 2.521652
20.000000, 6.500000, 2.558526
20.000000, 7.000000, 2.598373
20.000000, 7.500000, 2.641198
20.000000, 8.000000, 2.687005
20.000000, 8.500000, 2.735799
20.000000, 9.000000, 2.787585
20.000000, 9.500000, 2.842368
20.000000, 10.000000, 2.900155
20.000000, 10.500000, 2.960951
20.000000, 11.000000, 3.024763
20.000000, 11.500000, 3.091599
20.000000, 12.000000, 3.161465
20.000000, 12.500000, 3.234368
20.000000, 13.000000, 3.310317
20.000000, 13.500000, 3.38932
20.000000, 14.000000, 3.471386
20.000000, 14.500000, 3.556524
20.000000, 15.000000, 3.644742
20.000000, 15.500000, 3.736052
20.000000, 16.000000, 3.830462
20.000000, 16.500000, 3.927984
20.000000, 17.000000, 4.028628
20.000000, 17.500000, 4.132407
20.000000, 18.000000, 4.239331
20.000000, 18.500000, 4.349412
20.000000, 19.000000, 4.462665
20.000000, 19.500000, 4.579101
20.000000, 20.000000, 4.698733
20.000000, 20.500000, 4.821577
20.000000, 21.000000, 4.947646
20.000000, 21.500000, 5.076955
20.000000, 22.000000, 5.20952
20.000000, 22.500000, 5.345356
20.000000, 23.000000, 5.48448
20.000000, 23.500000, 5.626908
20.000000, 24.000000, 5.772658
20.000000, 24.500000, 5.921748
20.000000, 25.000000, 6.074196
20.000000, 25.500000, 6.230021
20.000000, 26.000000, 6.389243
20.000000, 26.500000, 6.551882
20.000000, 27.000000, 6.717958
20.000000, 27.500000, 6.887494
20.000000, 28.000000, 7.06051
20.000000, 28.500000, 7.237029
20.000000, 29.000000, 7.417076
20.000000, 29.500000, 7.600673
20.000000, 30.000000, 7.787846
20.000000, 30.500000, 7.978619
20.000000, 31.000000, 8.173019
20.000000, 31.500000, 8.371073
20.000000, 32.000000, 8.572808
20.000000, 32.500000, 8.778253
20.000000, 33.000000, 8.987437
20.000000, 33.500000, 9.20039
20.000000, 34.000000, 9.417144
20.000000, 34.500000, 9.637729
20.000000, 35.000000, 9.862179
20.000000, 35.500000, 10.090527
20.000000, 36.000000, 10.322809
20.000000, 36.500000, 10.55906
20.000000, 37.000000, 10.799317
20.000000, 37.500000, 11.043618
20.000000, 38.000000, 11.292003
20.000000, 38.500000, 11.54451
20.000000, 39.000000, 11.801182
20.000000, 39.500000, 12.062061
20.000000, 40.000000, 12.327192
20.000000, 40.500000, 12.59662
20.000000, 41.000000, 12.870391
20.000000, 41.500000, 13.148555
20.000000, 42.000000, 13.431159
20.000000, 42.500000, 13.718257
20.500000, -42.500000, 13.868745
20.500000, -42.000000, 13.580908
20.500000, -41.500000, 13.297579
20.500000, -41.000000, 13.018706
20.500000, -40.500000, 12.744238
20.500000, -40.000000, 12.474128
20.500000, -39.500000, 12.208328
20.500000, -39.000000, 11.946793
20.500000, -38.500000, 11.689477
20.500000, -38.000000, 11.436339
20.500000, -37.500000, 11.187336
20.500000, -37.000000, 10.942427
20.500000, -36.500000, 10.701574
20.500000, -36.000000, 10.464738
20.500000, -35.500000, 10.231882
20.500000, -35.000000, 10.00297
20.500000, -34.500000, 9.777968
20.500000, -34.000000, 9.55684
20.500000, -33.500000, 9.339554
20.500000, -33.000000, 9.126077
20.500000, -32.500000, 8.91638
20.500000, -32.000000, 8.710431
20.500000, -31.500000, 8.5082
20.500000, -31.000000, 8.30966
20.500000, -30.500000, 8.114782
20.500000, -30.000000, 7.92354
20.500000, -29.500000, 7.735907
20.500000, -29.000000, 7.551857
20.500000, -28.500000, 7.371366
20.500000, -28.000000, 7.19441
20.500000, -27.500000, 7.020966
20.500000, -27.000000, 6.851009
20.500000, -26.500000, 6.684519
20.500000, -26.000000, 6.521474
20.500000, -25.500000, 6.361853
20.500000, -25.000000, 6.205636
20.500000, -24.500000, 6.052803
20.500000, -24.000000, 5.903335
20.500000, -23.500000, 5.757214
20.500000, -23.000000, 5.614421
20.500000, -22.500000, 5.474939
20.500000, -22.000000, 5.338751
20.500000, -21.500000, 5.205841
20.500000, -21.000000, 5.076193
20.500000, -20.500000, 4.949791
20.500000, -20.000000, 4.82662
20.500000, -19.500000, 4.706666
20.500000, -19.000000, 4.589915
20.500000, -18.500000, 4.476353
20.500000, -18.000000, 4.365968
20.500000, -17.500000, 4.258745
20.500000, -17.000000, 4.154674
20.500000, -16.500000, 4.053743
20.500000, -16.000000, 3.955939
20.500000, -15.500000, 3.861252
20.500000, -15.000000, 3.769672
20.500000, -14.500000, 3.681187
20.500000, -14.000000, 3.595789
20.500000, -13.500000, 3.513467
20.500000, -13.000000, 3.434214
20.500000, -12.500000, 3.358019
20.500000, -12.000000, 3.284875
20.500000, -11.500000, 3.214773
20.500000, -11.000000, 3.147707
20.500000, -10.500000, 3.083668
20.500000, -10.000000, 3.02265
20.500000, -9.500000, 2.964646
20.500000, -9.000000, 2.909651
20.500000, -8.500000, 2.857658
20.500000, -8.000000, 2.808661
20.500000, -7.500000, 2.762656
20.500000, -7.000000, 2.719637
20.500000, -6.500000, 2.6796
20.500000, -6.000000, 2.642541
20.500000, -5.500000, 2.608456
20.500000, -5.000000, 2.57734
20.500000, -4.500000, 2.549192
20.500000, -4.000000, 2.524008
20.500000, -3.500000, 2.501785
20.500000, -3.000000, 2.482521
20.500000, -2.500000, 2.466214
20.500000, -2.000000, 2.452862
20.500000, -1.500000, 2.442464
20.500000, -1.000000, 2.435019
20.500000, -0.500000, 2.430526
20.500000, 0.000000, 2.428985
20.500000, 0.500000, 2.430394
20.500000, 1.000000, 2.434755
20.500000, 1.500000, 2.442069
20.500000, 2.000000, 2.452335
20.500000, 2.500000, 2.465554
20.500000, 3.000000, 2.481729
20.500000, 3.500000, 2.500861
20.500000, 4.000000, 2.522952
20.500000, 4.500000, 2.548004
20.500000, 5.000000, 2.576019
20.500000, 5.500000, 2.607002
20.500000, 6.000000, 2.640954
20.500000, 6.500000, 2.67788
20.500000, 7.000000, 2.717784
20.500000, 7.500000, 2.760669
20.500000, 8.000000, 2.806541
20.500000, 8.500000, 2.855404
20.500000, 9.000000, 2.907263
20.500000, 9.500000, 2.962125
20.500000, 10.000000, 3.019994
20.500000, 10.500000, 3.080877
20.500000, 11.000000, 3.14478
20.500000, 11.500000, 3.211711
20.500000, 12.000000, 3.281677
20.500000, 12.500000, 3.354685
20.500000, 13.000000, 3.430743
20.500000, 13.500000, 3.50986
20.500000, 14.000000, 3.592045
20.500000, 14.500000, 3.677305
20.500000, 15.000000, 3.765651
20.500000, 15.500000, 3.857093
20.500000, 16.000000, 3.951641
20.500000, 16.500000, 4.049305
20.500000, 17.000000, 4.150097
20.500000, 17.500000, 4.254027
20.500000, 18.000000, 4.361108
20.500000, 18.500000, 4.471352
20.500000, 19.000000, 4.584772
20.500000, 19.500000, 4.70138
20.500000, 20.000000, 4.821191
20.500000, 20.500000, 4.944217
20.500000, 21.000000, 5.070475
20.500000, 21.500000, 5.199978
20.500000, 22.000000, 5.332742
20.500000, 22.500000, 5.468783
20.500000, 23.000000, 5.608117
20.500000, 23.500000, 5.750762
20.500000, 24.000000, 5.896734
20.500000, 24.500000, 6.046052
20.500000, 25.000000, 6.198734
20.500000, 25.500000, 6.3548
20.500000, 26.000000, 6.514268
20.500000, 26.500000, 6.67716
20.500000, 27.000000, 6.843495
20.500000, 27.500000, 7.013296
20.500000, 28.000000, 7.186585
20.500000, 28.500000, 7.363383
20.500000, 29.000000, 7.543716
20.500000, 29.500000, 7.727606
20.500000, 30.000000, 7.915078
20.500000, 30.500000, 8.106159
20.500000, 31.000000, 8.300873
20.500000, 31.500000, 8.499249
20.500000, 32.000000, 8.701314
20.500000, 32.500000, 8.907096
20.500000, 33.000000, 9.116626
20.500000, 33.500000, 9.329933
20.500000, 34.000000, 9.547048
20.500000, 34.500000, 9.768003
20.500000, 35.000000, 9.992832
20.500000, 35.500000, 10.221569
20.500000, 36.000000, 10.454248
20.500000, 36.500000, 10.690905
20.500000, 37.000000, 10.931578
20.500000, 37.500000, 11.176304
20.500000, 38.000000, 11.425123
20.500000, 38.500000, 11.678076
20.500000, 39.000000, 11.935204
20.500000, 39.500000, 12.19655
20.500000, 40.000000, 12.462158
20.500000, 40.500000, 12.732075
20.500000, 41.000000, 13.006347
20.500000, 41.500000, 13.285022
20.500000, 42.000000, 13.568151
20.500000, 42.500000, 13.855785
21.000000, -42.500000, 14.009975
21.000000, -42.000000, 13.721584
21.000000, -41.500000, 13.437714
21.000000, -41.000000, 13.158313
21.000000, -40.500000, 12.883329
21.000000, -40.000000, 12.612715
21.000000, -39.500000, 12.346423
21.000000, -39.000000, 12.084406
21.000000, -38.500000, 11.82662
21.000000, -38.000000, 11.573022
21.000000, -37.500000, 11.32357
21.000000, -37.000000, 11.078223
21.000000, -36.500000, 10.836941
21.000000, -36.000000, 10.599687
21.000000, -35.500000, 10.366421
21.000000, -35.000000, 10.13711
21.000000, -34.500000, 9.911716
21.000000, -34.000000, 9.690206
21.000000, -33.500000, 9.472547
21.000000, -33.000000, 9.258706
21.000000, -32.500000, 9.048652
21.000000, -32.000000, 8.842355
21.000000, -31.500000, 8.639785
21.000000, -31.000000, 8.440913
21.000000, -30.500000, 8.245711
21.000000, -30.000000, 8.054152
21.000000, -29.500000, 7.866209
21.000000, -29.000000, 7.681858
21.000000, -28.500000, 7.501073
21.000000, -28.000000, 7.323829
21.000000, -27.500000, 7.150104
21.000000, -27.000000, 6.979873
21.000000, -26.500000, 6.813116
21.000000, -26.000000, 6.649811
21.000000, -25.500000, 6.489936
21.000000, -25.000000, 6.333471
21.000000, -24.500000, 6.180397
21.000000, -24.000000, 6.030694
21.000000, -23.500000, 5.884343
21.000000, -23.000000, 5.741327
21.000000, -22.500000, 5.601628
21.000000, -22.000000, 5.465229
21.000000, -21.500000, 5.332114
21.000000, -21.000000, 5.202265
21.000000, -20.500000, 5.075669
21.000000, -20.000000, 4.95231
21.000000, -19.500000, 4.832173
21.000000, -19.000000, 4.715244
21.000000, -18.500000, 4.60151
21.000000, -18.000000, 4.490957
21.000000, -17.500000, 4.383573
21.000000, -17.000000, 4.279345
21.000000, -16.500000, 4.178262
21.000000, -16.000000, 4.080311
21.000000, -15.500000, 3.985483
21.000000, -15.000000, 3.893766
