-27.500000, -0.500000, 3.922027
-27.500000, 0.000000, 3.920463
-27.500000, 0.500000, 3.921526
-27.500000, 1.000000, 3.92522
-27.500000, 1.500000, 3.931551
-27.500000, 2.000000, 3.940528
-27.500000, 2.500000, 3.952159
-27.500000, 3.000000, 3.966455
-27.500000, 3.500000, 3.983427
-27.500000, 4.000000, 4.003089
-27.500000, 4.500000, 4.025455
-27.500000, 5.000000, 4.050542
-27.500000, 5.500000, 4.078364
-27.500000, 6.000000, 4.10894
-27.500000, 6.500000, 4.142288
-27.500000, 7.000000, 4.178428
-27.500000, 7.500000, 4.217378
-27.500000, 8.000000, 4.25916
-27.500000, 8.500000, 4.303794
-27.500000, 9.000000, 4.351302
-27.500000, 9.500000, 4.401705
-27.500000, 10.000000, 4.455025
-27.500000, 10.500000, 4.511284
-27.500000, 11.000000, 4.570504
-27.500000, 11.500000, 4.632708
-27.500000, 12.000000, 4.697918
-27.500000, 12.500000, 4.766157
-27.500000, 13.000000, 4.837446
-27.500000, 13.500000, 4.911807
-27.500000, 14.000000, 4.989263
-27.500000, 14.500000, 5.069836
-27.500000, 15.000000, 5.153547
-27.500000, 15.500000, 5.240418
-27.500000, 16.000000, 5.33047
-27.500000, 16.500000, 5.423724
-27.500000, 17.000000, 5.520202
-27.500000, 17.500000, 5.619923
-27.500000, 18.000000, 5.72291
-27.500000, 18.500000, 5.829183
-27.500000, 19.000000, 5.938761
-27.500000, 19.500000, 6.051666
-27.500000, 20.000000, 6.167917
-27.500000, 20.500000, 6.287535
-27.500000, 21.000000, 6.41054
-27.500000, 21.500000, 6.536953
-27.500000, 22.000000, 6.666792
-27.500000, 22.500000, 6.80008
-27.500000, 23.000000, 6.936836
-27.500000, 23.500000, 7.07708
-27.500000, 24.000000, 7.220834
-27.500000, 24.500000, 7.368118
-27.500000, 25.000000, 7.518953
-27.500000, 25.500000, 7.673361
-27.500000, 26.000000, 7.831362
-27.500000, 26.500000, 7.99298
-27.500000, 27.000000, 8.158236
-27.500000, 27.500000, 8.327153
-27.500000, 28.000000, 8.499753
-27.500000, 28.500000, 8.676062
-27.500000, 29.000000, 8.856102
-27.500000, 29.500000, 9.039898
-27.500000, 30.000000, 9.227475
-27.500000, 30.500000, 9.418859
-27.500000, 31.000000, 9.614077
-27.500000, 31.500000, 9.813154
-27.500000, 32.000000, 10.01612
-27.500000, 32.500000, 10.223002
-27.500000, 33.000000, 10.43383
-27.500000, 33.500000, 10.648634
-27.500000, 34.000000, 10.867444
-27.500000, 34.500000, 11.090292
-27.500000, 35.000000, 11.317212
-27.500000, 35.500000, 11.548237
-27.500000, 36.000000, 11.783401
-27.500000, 36.500000, 12.022741
-27.500000, 37.000000, 12.266293
-27.500000, 37.500000, 12.514096
-27.500000, 38.000000, 12.766188
-27.500000, 38.500000, 13.02261
-27.500000, 39.000000, 13.283404
-27.500000, 39.500000, 13.548614
-27.500000, 40.000000, 13.818282
-27.500000, 40.500000, 14.092457
-27.500000, 41.000000, 14.371184
-27.500000, 41.500000, 14.654514
-27.500000, 42.000000, 14.942497
-27.500000, 42.500000, 15.235185
-27.000000, -42.500000, 15.055597
-27.000000, -42.000000, 14.763106
-27.000000, -41.500000, 14.475316
-27.000000, -41.000000, 14.192174
-27.000000, -40.500000, 13.913633
-27.000000, -40.000000, 13.639642
-27.000000, -39.500000, 13.370157
-27.000000, -39.000000, 13.105131
-27.000000, -38.500000, 12.844522
-27.000000, -38.000000, 12.588287
-27.000000, -37.500000, 12.336386
-27.000000, -37.000000, 12.088779
-27.000000, -36.500000, 11.845428
-27.000000, -36.000000, 11.606296
-27.000000, -35.500000, 11.371347
-27.000000, -35.000000, 11.140547
-27.000000, -34.500000, 10.913862
-27.000000, -34.000000, 10.69126
-27.000000, -33.500000, 10.472709
-27.000000, -33.000000, 10.258178
-27.000000, -32.500000, 10.047638
-27.000000, -32.000000, 9.84106
-27.000000, -31.500000, 9.638415
-27.000000, -31.000000, 9.439677
-27.000000, -30.500000, 9.244818
-27.000000, -30.000000, 9.053814
-27.000000, -29.500000, 8.866638
-27.000000, -29.000000, 8.683265
-27.000000, -28.500000, 8.503673
-27.000000, -28.000000, 8.327837
-27.000000, -27.500000, 8.155733
-27.000000, -27.000000, 7.98734
-27.000000, -26.500000, 7.822635
-27.000000, -26.000000, 7.661596
-27.000000, -25.500000, 7.504201
-27.000000, -25.000000, 7.350429
-27.000000, -24.500000, 7.200259
-27.000000, -24.000000, 7.053669
-27.000000, -23.500000, 6.910638
-27.000000, -23.000000, 6.771145
-27.000000, -22.500000, 6.63517
-27.000000, -22.000000, 6.502691
-27.000000, -21.500000, 6.373687
-27.000000, -21.000000, 6.248137
-27.000000, -20.500000, 6.12602
-27.000000, -20.000000, 6.007313
-27.000000, -19.500000, 5.891996
-27.000000, -19.000000, 5.780045
-27.000000, -18.500000, 5.671439
-27.000000, -18.000000, 5.566154
-27.000000, -17.500000, 5.464167
-27.000000, -17.000000, 5.365454
-27.000000, -16.500000, 5.269991
-27.000000, -16.000000, 5.177753
-27.000000, -15.500000, 5.088716
-27.000000, -15.000000, 5.002854
-27.000000, -14.500000, 4.920141
-27.000000, -14.000000, 4.84055
-27.000000, -13.500000, 4.764055
-27.000000, -13.000000, 4.690629
-27.000000, -12.500000, 4.620245
-27.000000, -12.000000, 4.552876
-27.000000, -11.500000, 4.488493
-27.000000, -11.000000, 4.42707
-27.000000, -10.500000, 4.368579
-27.000000, -10.000000, 4.312993
-27.000000, -9.500000, 4.260286
-27.000000, -9.000000, 4.210432
-27.000000, -8.500000, 4.163405
-27.000000, -8.000000, 4.119181
-27.000000, -7.500000, 4.077735
-27.000000, -7.000000, 4.039047
-27.000000, -6.500000, 4.003094
-27.000000, -6.000000, 3.969857
-27.000000, -5.500000, 3.939317
-27.000000, -5.000000, 3.911458
-27.000000, -4.500000, 3.886265
-27.000000, -4.000000, 3.863725
-27.000000, -3.500000, 3.843825
-27.000000, -3.000000, 3.826558
-27.000000, -2.500000, 3.811913
-27.000000, -2.000000, 3.799887
-27.000000, -1.500000, 3.790475
-27.000000, -1.000000, 3.783673
-27.000000, -0.500000, 3.779483
-27.000000, 0.000000, 3.777906
-27.000000, 0.500000, 3.778944
-27.000000, 1.000000, 3.782602
-27.000000, 1.500000, 3.788886
-27.000000, 2.000000, 3.797805
-27.000000, 2.500000, 3.809369
-27.000000, 3.000000, 3.823587
-27.000000, 3.500000, 3.840473
-27.000000, 4.000000, 3.86004
-27.000000, 4.500000, 3.882302
-27.000000, 5.000000, 3.907277
-27.000000, 5.500000, 3.934981
-27.000000, 6.000000, 3.965433
-27.000000, 6.500000, 3.99865
-27.000000, 7.000000, 4.034653
-27.000000, 7.500000, 4.073462
-27.000000, 8.000000, 4.115099
-27.000000, 8.500000, 4.159584
-27.000000, 9.000000, 4.20694
-27.000000, 9.500000, 4.257188
-27.000000, 10.000000, 4.31035
-27.000000, 10.500000, 4.366451
-27.000000, 11.000000, 4.425511
-27.000000, 11.500000, 4.487554
-27.000000, 12.000000, 4.552603
-27.000000, 12.500000, 4.620679
-27.000000, 13.000000, 4.691806
-27.000000, 13.500000, 4.766006
-27.000000, 14.000000, 4.8433
-27.000000, 14.500000, 4.923712
-27.000000, 15.000000, 5.007262
-27.000000, 15.500000, 5.093973
-27.000000, 16.000000, 5.183865
-27.000000, 16.500000, 5.27696
-27.000000, 17.000000, 5.373279
-27.000000, 17.500000, 5.472843
-27.000000, 18.000000, 5.575672
-27.000000, 18.500000, 5.681786
-27.000000, 19.000000, 5.791206
-27.000000, 19.500000, 5.903953
-27.000000, 20.000000, 6.020045
-27.000000, 20.500000, 6.139504
-27.000000, 21.000000, 6.262348
-27.000000, 21.500000, 6.388599
-27.000000, 22.000000, 6.518276
-27.000000, 22.500000, 6.651398
-27.000000, 23.000000, 6.787987
-27.000000, 23.500000, 6.928061
-27.000000, 24.000000, 7.071643
-27.000000, 24.500000, 7.218751
-27.000000, 25.000000, 7.369407
-27.000000, 25.500000, 7.523632
-27.000000, 26.000000, 7.681447
-27.000000, 26.500000, 7.842873
-27.000000, 27.000000, 8.007933
-27.000000, 27.500000, 8.176649
-27.000000, 28.000000, 8.349043
-27.000000, 28.500000, 8.525139
-27.000000, 29.000000, 8.704961
-27.000000, 29.500000, 8.888532
-27.000000, 30.000000, 9.075877
-27.000000, 30.500000, 9.267022
-27.000000, 31.000000, 9.461993
-27.000000, 31.500000, 9.660817
-27.000000, 32.000000, 9.86352
-27.000000, 32.500000, 10.070131
-27.000000, 33.000000, 10.280678
-27.000000, 33.500000, 10.495193
-27.000000, 34.000000, 10.713704
-27.000000, 34.500000, 10.936244
-27.000000, 35.000000, 11.162845
-27.000000, 35.500000, 11.39354
-27.000000, 36.000000, 11.628364
-27.000000, 36.500000, 11.867352
-27.000000, 37.000000, 12.11054
-27.000000, 37.500000, 12.357967
-27.000000, 38.000000, 12.609671
-27.000000, 38.500000, 12.865693
-27.000000, 39.000000, 13.126073
-27.000000, 39.500000, 13.390855
-27.000000, 40.000000, 13.660083
-27.000000, 40.500000, 13.933802
-27.000000, 41.000000, 14.212059
-27.000000, 41.500000, 14.494903
-27.000000, 42.000000, 14.782386
-27.000000, 42.500000, 15.074557
-26.500000, -42.500000, 14.899225
-26.500000, -42.000000, 14.607225
-26.500000, -41.500000, 14.319909
-26.500000, -41.000000, 14.037227
-26.500000, -40.500000, 13.759129
-26.500000, -40.000000, 13.485567
-26.500000, -39.500000, 13.216496
-26.500000, -39.000000, 12.95187
-26.500000, -38.500000, 12.691646
-26.500000, -38.000000, 12.435784
-26.500000, -37.500000, 12.184242
-26.500000, -37.000000, 11.936982
-26.500000, -36.500000, 11.693965
-26.500000, -36.000000, 11.455156
-26.500000, -35.500000, 11.220518
-26.500000, -35.000000, 10.990018
-26.500000, -34.500000, 10.763622
-26.500000, -34.000000, 10.541298
-26.500000, -33.500000, 10.323015
-26.500000, -33.000000, 10.108743
-26.500000, -32.500000, 9.898452
-26.500000, -32.000000, 9.692114
-26.500000, -31.500000, 9.489701
-26.500000, -31.000000, 9.291186
-26.500000, -30.500000, 9.096544
-26.500000, -30.000000, 8.905747
-26.500000, -29.500000, 8.718772
-26.500000, -29.000000, 8.535595
-26.500000, -28.500000, 8.356191
-26.500000, -28.000000, 8.180538
-26.500000, -27.500000, 8.008612
-26.500000, -27.000000, 7.840392
-26.500000, -26.500000, 7.675856
-26.500000, -26.000000, 7.514981
-26.500000, -25.500000, 7.357748
-26.500000, -25.000000, 7.204133
-26.500000, -24.500000, 7.054118
-26.500000, -24.000000, 6.907681
-26.500000, -23.500000, 6.764802
-26.500000, -23.000000, 6.625459
-26.500000, -22.500000, 6.489633
-26.500000, -22.000000, 6.357303
-26.500000, -21.500000, 6.228447
-26.500000, -21.000000, 6.103047
-26.500000, -20.500000, 5.981079
-26.500000, -20.000000, 5.862523
-26.500000, -19.500000, 5.747358
-26.500000, -19.000000, 5.635561
-26.500000, -18.500000, 5.52711
-26.500000, -18.000000, 5.421982
-26.500000, -17.500000, 5.320155
-26.500000, -17.000000, 5.221604
-26.500000, -16.500000, 5.126305
-26.500000, -16.000000, 5.034235
-26.500000, -15.500000, 4.945367
-26.500000, -15.000000, 4.859676
-26.500000, -14.500000, 4.777136
-26.500000, -14.000000, 4.697721
-26.500000, -13.500000, 4.621403
-26.500000, -13.000000, 4.548155
-26.500000, -12.500000, 4.47795
-26.500000, -12.000000, 4.410758
-26.500000, -11.500000, 4.346554
-26.500000, -11.000000, 4.285307
-26.500000, -10.500000, 4.226991
-26.500000, -10.000000, 4.171577
-26.500000, -9.500000, 4.119039
-26.500000, -9.000000, 4.069348
-26.500000, -8.500000, 4.02248
-26.500000, -8.000000, 3.978409
-26.500000, -7.500000, 3.93711
-26.500000, -7.000000, 3.89856
-26.500000, -6.500000, 3.862737
-26.500000, -6.000000, 3.829621
-26.500000, -5.500000, 3.799192
-26.500000, -5.000000, 3.771435
-26.500000, -4.500000, 3.746332
-26.500000, -4.000000, 3.723871
-26.500000, -3.500000, 3.70404
-26.500000, -3.000000, 3.686828
-26.500000, -2.500000, 3.672229
-26.500000, -2.000000, 3.660235
-26.500000, -1.500000, 3.650844
-26.500000, -1.000000, 3.644052
-26.500000, -0.500000, 3.639859
-26.500000, 0.000000, 3.638267
-26.500000, 0.500000, 3.63928
-26.500000, 1.000000, 3.642901
-26.500000, 1.500000, 3.649138
-26.500000, 2.000000, 3.658
-26.500000, 2.500000, 3.669495
-26.500000, 3.000000, 3.683636
-26.500000, 3.500000, 3.700435
-26.500000, 4.000000, 3.719907
-26.500000, 4.500000, 3.742066
-26.500000, 5.000000, 3.76693
-26.500000, 5.500000, 3.794517
-26.500000, 6.000000, 3.824844
-26.500000, 6.500000, 3.857931
-26.500000, 7.000000, 3.893799
-26.500000, 7.500000, 3.932469
-26.500000, 8.000000, 3.973962
-26.500000, 8.500000, 4.018301
-26.500000, 9.000000, 4.065506
-26.500000, 9.500000, 4.115602
-26.500000, 10.000000, 4.168611
-26.500000, 10.500000, 4.224556
-26.500000, 11.000000, 4.283461
-26.500000, 11.500000, 4.345347
-26.500000, 12.000000, 4.410238
-26.500000, 12.500000, 4.478158
-26.500000, 13.000000, 4.549128
-26.500000, 13.500000, 4.623171
-26.500000, 14.000000, 4.70031
-26.500000, 14.500000, 4.780566
-26.500000, 15.000000, 4.863962
-26.500000, 15.500000, 4.950519
-26.500000, 16.000000, 5.040259
-26.500000, 16.500000, 5.133202
-26.500000, 17.000000, 5.22937
-26.500000, 17.500000, 5.328783
-26.500000, 18.000000, 5.431462
-26.500000, 18.500000, 5.537426
-26.500000, 19.000000, 5.646697
-26.500000, 19.500000, 5.759293
-26.500000, 20.000000, 5.875236
-26.500000, 20.500000, 5.994544
-26.500000, 21.000000, 6.117237
-26.500000, 21.500000, 6.243334
-26.500000, 22.000000, 6.372857
-26.500000, 22.500000, 6.505823
-26.500000, 23.000000, 6.642254
-26.500000, 23.500000, 6.782168
-26.500000, 24.000000, 6.925586
-26.500000, 24.500000, 7.072529
-26.500000, 25.000000, 7.223015
-26.500000, 25.500000, 7.377067
-26.500000, 26.000000, 7.534704
-26.500000, 26.500000, 7.695949
-26.500000, 27.000000, 7.860822
-26.500000, 27.500000, 8.029347
-26.500000, 28.000000, 8.201544
-26.500000, 28.500000, 8.377437
-26.500000, 29.000000, 8.557049
-26.500000, 29.500000, 8.740405
-26.500000, 30.000000, 8.927528
-26.500000, 30.500000, 9.118444
-26.500000, 31.000000, 9.313178
-26.500000, 31.500000, 9.511757
-26.500000, 32.000000, 9.714207
-26.500000, 32.500000, 9.920556
-26.500000, 33.000000, 10.130834
-26.500000, 33.500000, 10.345069
-26.500000, 34.000000, 10.563291
-26.500000, 34.500000, 10.785532
-26.500000, 35.000000, 11.011824
-26.500000, 35.500000, 11.2422
-26.500000, 36.000000, 11.476693
-26.500000, 36.500000, 11.715339
-26.500000, 37.000000, 11.958175
-26.500000, 37.500000, 12.205236
-26.500000, 38.000000, 12.456563
-26.500000, 38.500000, 12.712195
-26.500000, 39.000000, 12.972172
-26.500000, 39.500000, 13.236538
-26.500000, 40.000000, 13.505335
-26.500000, 40.500000, 13.77861
-26.500000, 41.000000, 14.056409
-26.500000, 41.500000, 14.33878
-26.500000, 42.000000, 14.625774
-26.500000, 42.500000, 14.917441
-26.000000, -42.500000, 14.746352
-26.000000, -42.000000, 14.454831
-26.000000, -41.500000, 14.167979
-26.000000, -41.000000, 13.885745
-26.000000, -40.500000, 13.60808
-26.000000, -40.000000, 13.334936
-26.000000, -39.500000, 13.066268
-26.000000, -39.000000, 12.802032
-26.000000, -38.500000, 12.542185
-26.000000, -38.000000, 12.286685
-26.000000, -37.500000, 12.035493
-26.000000, -37.000000, 11.788569
-26.000000, -36.500000, 11.545877
-26.000000, -36.000000, 11.307381
-26.000000, -35.500000, 11.073044
-26.000000, -35.000000, 10.842834
-26.000000, -34.500000, 10.616718
-26.000000, -34.000000, 10.394663
-26.000000, -33.500000, 10.176639
-26.000000, -33.000000, 9.962616
-26.000000, -32.500000, 9.752565
-26.000000, -32.000000, 9.546457
-26.000000, -31.500000, 9.344266
-26.000000, -31.000000, 9.145965
-26.000000, -30.500000, 8.951529
-26.000000, -30.000000, 8.760931
-26.000000, -29.500000, 8.574148
-26.000000, -29.000000, 8.391155
-26.000000, -28.500000, 8.21193
-26.000000, -28.000000, 8.03645
-26.000000, -27.500000, 7.864692
-26.000000, -27.000000, 7.696635
-26.000000, -26.500000, 7.532257
-26.000000, -26.000000, 7.371536
-26.000000, -25.500000, 7.214453
-26.000000, -25.000000, 7.060987
-26.000000, -24.500000, 6.911116
-26.000000, -24.000000, 6.764822
-26.000000, -23.500000, 6.622084
-26.000000, -23.000000, 6.482881
-26.000000, -22.500000, 6.347194
-26.000000, -22.000000, 6.215002
-26.000000, -21.500000, 6.086285
-26.000000, -21.000000, 5.961023
-26.000000, -20.500000, 5.839195
-26.000000, -20.000000, 5.72078
-26.000000, -19.500000, 5.605757
-26.000000, -19.000000, 5.494104
-26.000000, -18.500000, 5.385799
-26.000000, -18.000000, 5.28082
-26.000000, -17.500000, 5.179144
-26.000000, -17.000000, 5.080747
-26.000000, -16.500000, 4.985605
-26.000000, -16.000000, 4.893693
-26.000000, -15.500000, 4.804988
-26.000000, -15.000000, 4.719461
-26.000000, -14.500000, 4.637089
-26.000000, -14.000000, 4.557843
-26.000000, -13.500000, 4.481696
-26.000000, -13.000000, 4.408621
-26.000000, -12.500000, 4.338589
-26.000000, -12.000000, 4.271572
-26.000000, -11.500000, 4.207542
-26.000000, -11.000000, 4.146469
-26.000000, -10.500000, 4.088324
-26.000000, -10.000000, 4.03308
-26.000000, -9.500000, 3.980708
-26.000000, -9.000000, 3.93118
-26.000000, -8.500000, 3.884469
-26.000000, -8.000000, 3.840549
-26.000000, -7.500000, 3.799394
-26.000000, -7.000000, 3.760982
-26.000000, -6.500000, 3.725288
-26.000000, -6.000000, 3.692292
-26.000000, -5.500000, 3.661974
-26.000000, -5.000000, 3.634316
-26.000000, -4.500000, 3.609303
-26.000000, -4.000000, 3.586921
-26.000000, -3.500000, 3.567157
-26.000000, -3.000000, 3.550001
-26.000000, -2.500000, 3.535445
-26.000000, -2.000000, 3.523484
-26.000000, -1.500000, 3.514112
-26.000000, -1.000000, 3.507329
-26.000000, -0.500000, 3.503133
-26.000000, 0.000000, 3.501526
-26.000000, 0.500000, 3.502513
-26.000000, 1.000000, 3.506097
-26.000000, 1.500000, 3.512286
-26.000000, 2.000000, 3.52109
-26.000000, 2.500000, 3.532517
-26.000000, 3.000000, 3.546581
-26.000000, 3.500000, 3.563293
-26.000000, 4.000000, 3.58267
-26.000000, 4.500000, 3.604727
-26.000000, 5.000000, 3.629481
-26.000000, 5.500000, 3.65695
-26.000000, 6.000000, 3.687154
-26.000000, 6.500000, 3.720113
-26.000000, 7.000000, 3.755848
-26.000000, 7.500000, 3.79438
-26.000000, 8.000000, 3.835731
-26.000000, 8.500000, 3.879925
-26.000000, 9.000000, 3.926984
-26.000000, 9.500000, 3.976931
-26.000000, 10.000000, 4.029789
-26.000000, 10.500000, 4.085583
-26.000000, 11.000000, 4.144335
-26.000000, 11.500000, 4.206069
-26.000000, 12.000000, 4.270808
-26.000000, 12.500000, 4.338575
-26.000000, 13.000000, 4.409394
-26.000000, 13.500000, 4.483286
-26.000000, 14.000000, 4.560276
-26.000000, 14.500000, 4.640383
-26.000000, 15.000000, 4.723632
-26.000000, 15.500000, 4.810043
-26.000000, 16.000000, 4.899637
-26.000000, 16.500000, 4.992436
-26.000000, 17.000000, 5.08846
-26.000000, 17.500000, 5.18773
-26.000000, 18.000000, 5.290267
-26.000000, 18.500000, 5.39609
-26.000000, 19.000000, 5.505219
-26.000000, 19.500000, 5.617675
-26.000000, 20.000000, 5.733475
-26.000000, 20.500000, 5.852641
-26.000000, 21.000000, 5.975192
-26.000000, 21.500000, 6.101146
-26.000000, 22.000000, 6.230523
-26.000000, 22.500000, 6.363343
-26.000000, 23.000000, 6.499624
-26.000000, 23.500000, 6.639387
-26.000000, 24.000000, 6.782652
-26.000000, 24.500000, 6.929437
-26.000000, 25.000000, 7.079763
-26.000000, 25.500000, 7.233651
-26.000000, 26.000000, 7.39112
-26.000000, 26.500000, 7.552193
-26.000000, 27.000000, 7.716889
-26.000000, 27.500000, 7.885231
-26.000000, 28.000000, 8.05724
-26.000000, 28.500000, 8.23294
-26.000000, 29.000000, 8.412353
-26.000000, 29.500000, 8.595502
-26.000000, 30.000000, 8.782413
-26.000000, 30.500000, 8.973108
-26.000000, 31.000000, 9.167615
-26.000000, 31.500000, 9.365958
-26.000000, 32.000000, 9.568165
-26.000000, 32.500000, 9.774262
-26.000000, 33.000000, 9.984279
-26.000000, 33.500000, 10.198244
-26.000000, 34.000000, 10.416187
-26.000000, 34.500000, 10.638138
-26.000000, 35.000000, 10.864131
-26.000000, 35.500000, 11.094197
-26.000000, 36.000000, 11.328369
-26.000000, 36.500000, 11.566684
-26.000000, 37.000000, 11.809176
-26.000000, 37.500000, 12.055883
-26.000000, 38.000000, 12.306843
-26.000000, 38.500000, 12.562095
-26.000000, 39.000000, 12.82168
-26.000000, 39.500000, 13.08564
-26.000000, 40.000000, 13.354018
-26.000000, 40.500000, 13.62686
-26.000000, 41.000000, 13.904212
-26.000000, 41.500000, 14.186121
-26.000000, 42.000000, 14.472637
-26.000000, 42.500000, 14.763812
-25.500000, -42.500000, 14.596952
-25.500000, -42.000000, 14.3059
-25.500000, -41.500000, 14.019501
-25.500000, -41.000000, 13.737705
-25.500000, -40.500000, 13.460462
-25.500000, -40.000000, 13.187727
-25.500000, -39.500000, 12.919453
-25.500000, -39.000000, 12.655596
-25.500000, -38.500000, 12.396115
-25.500000, -38.000000, 12.140969
-25.500000, -37.500000, 11.890117
-25.500000, -37.000000, 11.643521
-25.500000, -36.500000, 11.401145
-25.500000, -36.000000, 11.162952
-25.500000, -35.500000, 10.928908
-25.500000, -35.000000, 10.698979
-25.500000, -34.500000, 10.473133
-25.500000, -34.000000, 10.251338
-25.500000, -33.500000, 10.033563
-25.500000, -33.000000, 9.81978
-25.500000, -32.500000, 9.609959
-25.500000, -32.000000, 9.404073
-25.500000, -31.500000, 9.202095
-25.500000, -31.000000, 9.003999
-25.500000, -30.500000, 8.809759
-25.500000, -30.000000, 8.61935
-25.500000, -29.500000, 8.432749
-25.500000, -29.000000, 8.249932
-25.500000, -28.500000, 8.070876
-25.500000, -28.000000, 7.895559
-25.500000, -27.500000, 7.723959
-25.500000, -27.000000, 7.556055
-25.500000, -26.500000, 7.391825
-25.500000, -26.000000, 7.231249
-25.500000, -25.500000, 7.074306
-25.500000, -25.000000, 6.920977
-25.500000, -24.500000, 6.771242
-25.500000, -24.000000, 6.62508
-25.500000, -23.500000, 6.482472
-25.500000, -23.000000, 6.343398
-25.500000, -22.500000, 6.20784
-25.500000, -22.000000, 6.075776
-25.500000, -21.500000, 5.947187
-25.500000, -21.000000, 5.822054
-25.500000, -20.500000, 5.700356
-25.500000, -20.000000, 5.582071
-25.500000, -19.500000, 5.467181
-25.500000, -19.000000, 5.355662
-25.500000, -18.500000, 5.247494
-25.500000, -18.000000, 5.142654
-25.500000, -17.500000, 5.04112
-25.500000, -17.000000, 4.942868
-25.500000, -16.500000, 4.847874
-25.500000, -16.000000, 4.756114
-25.500000, -15.500000, 4.667563
-25.500000, -15.000000, 4.582194
-25.500000, -14.500000, 4.499982
-25.500000, -14.000000, 4.420899
-25.500000, -13.500000, 4.344918
-25.500000, -13.000000, 4.27201
-25.500000, -12.500000, 4.202147
-25.500000, -12.000000, 4.1353
-25.500000, -11.500000, 4.071439
-25.500000, -11.000000, 4.010536
-25.500000, -10.500000, 3.95256
-25.500000, -10.000000, 3.897483
-25.500000, -9.500000, 3.845274
-25.500000, -9.000000, 3.795906
-25.500000, -8.500000, 3.749351
-25.500000, -8.000000, 3.70558
-25.500000, -7.500000, 3.664569
-25.500000, -7.000000, 3.626292
-25.500000, -6.500000, 3.590726
-25.500000, -6.000000, 3.557849
-25.500000, -5.500000, 3.527641
-25.500000, -5.000000, 3.500082
-25.500000, -4.500000, 3.475158
-25.500000, -4.000000, 3.452853
-25.500000, -3.500000, 3.433155
-25.500000, -3.000000, 3.416053
-25.500000, -2.500000, 3.40154
-25.500000, -2.000000, 3.38961
-25.500000, -1.500000, 3.380258
-25.500000, -1.000000, 3.373482
-25.500000, -0.500000, 3.369282
-25.500000, 0.000000, 3.36766
-25.500000, 0.500000, 3.36862
-25.500000, 1.000000, 3.372167
-25.500000, 1.500000, 3.378309
-25.500000, 2.000000, 3.387054
-25.500000, 2.500000, 3.398414
-25.500000, 3.000000, 3.4124
-25.500000, 3.500000, 3.429027
-25.500000, 4.000000, 3.448309
-25.500000, 4.500000, 3.470263
-25.500000, 5.000000, 3.494908
-25.500000, 5.500000, 3.522261
-25.500000, 6.000000, 3.552344
-25.500000, 6.500000, 3.585176
-25.500000, 7.000000, 3.620779
-25.500000, 7.500000, 3.659175
-25.500000, 8.000000, 3.700388
-25.500000, 8.500000, 3.74444
-25.500000, 9.000000, 3.791354
-25.500000, 9.500000, 3.841156
-25.500000, 10.000000, 3.893867
-25.500000, 10.500000, 3.949513
-25.500000, 11.000000, 4.008117
-25.500000, 11.500000, 4.069704
-25.500000, 12.000000, 4.134295
-25.500000, 12.500000, 4.201916
-25.500000, 13.000000, 4.272589
-25.500000, 13.500000, 4.346337
-25.500000, 14.000000, 4.423183
-25.500000, 14.500000, 4.503149
-25.500000, 15.000000, 4.586257
-25.500000, 15.500000, 4.672528
-25.500000, 16.000000, 4.761984
-25.500000, 16.500000, 4.854647
-25.500000, 17.000000, 4.950535
-25.500000, 17.500000, 5.049671
-25.500000, 18.000000, 5.152074
-25.500000, 18.500000, 5.257764
-25.500000, 19.000000, 5.36676
-25.500000, 19.500000, 5.479083
-25.500000, 20.000000, 5.594751
-25.500000, 20.500000, 5.713784
-25.500000, 21.000000, 5.8362
-25.500000, 21.500000, 5.96202
-25.500000, 22.000000, 6.091261
-25.500000, 22.500000, 6.223943
-25.500000, 23.000000, 6.360085
-25.500000, 23.500000, 6.499706
-25.500000, 24.000000, 6.642826
-25.500000, 24.500000, 6.789463
-25.500000, 25.000000, 6.939639
-25.500000, 25.500000, 7.093371
-25.500000, 26.000000, 7.250682
-25.500000, 26.500000, 7.411591
-25.500000, 27.000000, 7.576119
-25.500000, 27.500000, 7.744288
-25.500000, 28.000000, 7.916119
-25.500000, 28.500000, 8.091634
-25.500000, 29.000000, 8.270857
-25.500000, 29.500000, 8.453809
-25.500000, 30.000000, 8.640516
-25.500000, 30.500000, 8.831
-25.500000, 31.000000, 9.025288
-25.500000, 31.500000, 9.223405
-25.500000, 32.000000, 9.425377
-25.500000, 32.500000, 9.631232
-25.500000, 33.000000, 9.840997
-25.500000, 33.500000, 10.0547
-25.500000, 34.000000, 10.272373
-25.500000, 34.500000, 10.494045
-25.500000, 35.000000, 10.719747
-25.500000, 35.500000, 10.949512
-25.500000, 36.000000, 11.183374
-25.500000, 36.500000, 11.421366
-25.500000, 37.000000, 11.663525
-25.500000, 37.500000, 11.909886
-25.500000, 38.000000, 12.160489
-25.500000, 38.500000, 12.415371
-25.500000, 39.000000, 12.674574
-25.500000, 39.500000, 12.938138
-25.500000, 40.000000, 13.206108
-25.500000, 40.500000, 13.478528
-25.500000, 41.000000, 13.755443
-25.500000, 41.500000, 14.036901
-25.500000, 42.000000, 14.322952
-25.500000, 42.500000, 14.613646
-25.000000, -42.500000, 14.451001
-25.000000, -42.000000, 14.160408
-25.000000, -41.500000, 13.874452
-25.000000, -41.000000, 13.593083
-25.000000, -40.500000, 13.316254
-25.000000, -40.000000, 13.043917
-25.000000, -39.500000, 12.776027
-25.000000, -39.000000, 12.512541
-25.000000, -38.500000, 12.253418
-25.000000, -38.000000, 11.998615
-25.000000, -37.500000, 11.748094
-25.000000, -37.000000, 11.501818
-25.000000, -36.500000, 11.259748
-25.000000, -36.000000, 11.02185
-25.000000, -35.500000, 10.78809
-25.000000, -35.000000, 10.558433
-25.000000, -34.500000, 10.332849
-25.000000, -34.000000, 10.111305
-25.000000, -33.500000, 9.893771
-25.000000, -33.000000, 9.680219
-25.000000, -32.500000, 9.47062
-25.000000, -32.000000, 9.264947
-25.000000, -31.500000, 9.063173
-25.000000, -31.000000, 8.865272
-25.000000, -30.500000, 8.67122
-25.000000, -30.000000, 8.480991
-25.000000, -29.500000, 8.294563
-25.000000, -29.000000, 8.111912
-25.000000, -28.500000, 7.933016
-25.000000, -28.000000, 7.757853
-25.000000, -27.500000, 7.586401
-25.000000, -27.000000, 7.41864
-25.000000, -26.500000, 7.254548
-25.000000, -26.000000, 7.094107
-25.000000, -25.500000, 6.937295
-25.000000, -25.000000, 6.784093
-25.000000, -24.500000, 6.634482
-25.000000, -24.000000, 6.488443
-25.000000, -23.500000, 6.345955
-25.000000, -23.000000, 6.207001
-25.000000, -22.500000, 6.07156
-25.000000, -22.000000, 5.939614
-25.000000, -21.500000, 5.811143
-25.000000, -21.000000, 5.686128
-25.000000, -20.500000, 5.564549
-25.000000, -20.000000, 5.446386
-25.000000, -19.500000, 5.331617
-25.000000, -19.000000, 5.220223
-25.000000, -18.500000, 5.112182
-25.000000, -18.000000, 5.007472
-25.000000, -17.500000, 4.906071
-25.000000, -17.000000, 4.807955
-25.000000, -16.500000, 4.7131
-25.000000, -16.000000, 4.621483
-25.000000, -15.500000, 4.533078
-25.000000, -15.000000, 4.447859
-25.000000, -14.500000, 4.3658
-25.000000, -14.000000, 4.286874
-25.000000, -13.500000, 4.211051
-25.000000, -13.000000, 4.138305
-25.000000, -12.500000, 4.068606
-25.000000, -12.000000, 4.001924
-25.000000, -11.500000, 3.938229
-25.000000, -11.000000, 3.877491
-25.000000, -10.500000, 3.819681
-25.000000, -10.000000, 3.764767
-25.000000, -9.500000, 3.712719
-25.000000, -9.000000, 3.663509
-25.000000, -8.500000, 3.617106
-25.000000, -8.000000, 3.573484
-25.000000, -7.500000, 3.532614
-25.000000, -7.000000, 3.494472
-25.000000, -6.500000, 3.459032
-25.000000, -6.000000, 3.426272
-25.000000, -5.500000, 3.396171
-25.000000, -5.000000, 3.368711
-25.000000, -4.500000, 3.343873
-25.000000, -4.000000, 3.321644
-25.000000, -3.500000, 3.302011
-25.000000, -3.000000, 3.284963
-25.000000, -2.500000, 3.270492
-25.000000, -2.000000, 3.258591
-25.000000, -1.500000, 3.249258
-25.000000, -1.000000, 3.242489
-25.000000, -0.500000, 3.238284
-25.000000, 0.000000, 3.236647
-25.000000, 0.500000, 3.23758
-25.000000, 1.000000, 3.241089
-25.000000, 1.500000, 3.247183
-25.000000, 2.000000, 3.255871
-25.000000, 2.500000, 3.267163
-25.000000, 3.000000, 3.281072
-25.000000, 3.500000, 3.297613
-25.000000, 4.000000, 3.316802
-25.000000, 4.500000, 3.338656
-25.000000, 5.000000, 3.363192
-25.000000, 5.500000, 3.390431
-25.000000, 6.000000, 3.420393
-25.000000, 6.500000, 3.4531
-25.000000, 7.000000, 3.488573
-25.000000, 7.500000, 3.526836
-25.000000, 8.000000, 3.567913
-25.000000, 8.500000, 3.611826
-25.000000, 9.000000, 3.6586
-25.000000, 9.500000, 3.708259
-25.000000, 10.000000, 3.760828
-25.000000, 10.500000, 3.81633
-25.000000, 11.000000, 3.874792
-25.000000, 11.500000, 3.936235
-25.000000, 12.000000, 4.000685
-25.000000, 12.500000, 4.068165
-25.000000, 13.000000, 4.138698
-25.000000, 13.500000, 4.212308
-25.000000, 14.000000, 4.289017
-25.000000, 14.500000, 4.368848
-25.000000, 15.000000, 4.451822
-25.000000, 15.500000, 4.537962
-25.000000, 16.000000, 4.627288
-25.000000, 16.500000, 4.719821
-25.000000, 17.000000, 4.815583
-25.000000, 17.500000, 4.914592
-25.000000, 18.000000, 5.01687
-25.000000, 18.500000, 5.122435
-25.000000, 19.000000, 5.231308
-25.000000, 19.500000, 5.343506
-25.000000, 20.000000, 5.459051
-25.000000, 20.500000, 5.577959
-25.000000, 21.000000, 5.700251
-25.000000, 21.500000, 5.825945
-25.000000, 22.000000, 5.955059
-25.000000, 22.500000, 6.087612
-25.000000, 23.000000, 6.223624
-25.000000, 23.500000, 6.363112
-25.000000, 24.000000, 6.506096
-25.000000, 24.500000, 6.652595
-25.000000, 25.000000, 6.802628
-25.000000, 25.500000, 6.956215
-25.000000, 26.000000, 7.113376
-25.000000, 26.500000, 7.274131
-25.000000, 27.000000, 7.4385
-25.000000, 27.500000, 7.606505
-25.000000, 28.000000, 7.778166
-25.000000, 28.500000, 7.953506
-25.000000, 29.000000, 8.132546
-25.000000, 29.500000, 8.31531
-25.000000, 30.000000, 8.501822
-25.000000, 30.500000, 8.692104
-25.000000, 31.000000, 8.886182
-25.000000, 31.500000, 9.084081
-25.000000, 32.000000, 9.285828
-25.000000, 32.500000, 9.491448
-25.000000, 33.000000, 9.70097
-25.000000, 33.500000, 9.914422
-25.000000, 34.000000, 10.131833
-25.000000, 34.500000, 10.353234
-25.000000, 35.000000, 10.578655
-25.000000, 35.500000, 10.808128
-25.000000, 36.000000, 11.041688
-25.000000, 36.500000, 11.279367
-25.000000, 37.000000, 11.521201
-25.000000, 37.500000, 11.767226
-25.000000, 38.000000, 12.017481
-25.000000, 38.500000, 12.272003
-25.000000, 39.000000, 12.530833
-25.000000, 39.500000, 12.794013
-25.000000, 40.000000, 13.061584
-25.000000, 40.500000, 13.333591
-25.000000, 41.000000, 13.61008
-25.000000, 41.500000, 13.891098
-25.000000, 42.000000, 14.176694
-25.000000, 42.500000, 14.466918
-24.500000, -42.500000, 14.308473
-24.500000, -42.000000, 14.018329
-24.500000, -41.500000, 13.732806
-24.500000, -41.000000, 13.451856
-24.500000, -40.500000, 13.175431
-24.500000, -40.000000, 12.903483
-24.500000, -39.500000, 12.635969
-24.500000, -39.000000, 12.372845
-24.500000, -38.500000, 12.11407
-24.500000, -38.000000, 11.859603
-24.500000, -37.500000, 11.609406
-24.500000, -37.000000, 11.36344
-24.500000, -36.500000, 11.121669
-24.500000, -36.000000, 10.884057
-24.500000, -35.500000, 10.650572
-24.500000, -35.000000, 10.42118
-24.500000, -34.500000, 10.195849
-24.500000, -34.000000, 9.974547
-24.500000, -33.500000, 9.757247
-24.500000, -33.000000, 9.543918
-24.500000, -32.500000, 9.334532
-24.500000, -32.000000, 9.129063
-24.500000, -31.500000, 8.927485
-24.500000, -31.000000, 8.729771
-24.500000, -30.500000, 8.535898
-24.500000, -30.000000, 8.345841
-24.500000, -29.500000, 8.159577
-24.500000, -29.000000, 7.977083
-24.500000, -28.500000, 7.798337
-24.500000, -28.000000, 7.623319
-24.500000, -27.500000, 7.452006
-24.500000, -27.000000, 7.284378
-24.500000, -26.500000, 7.120416
-24.500000, -26.000000, 6.960099
-24.500000, -25.500000, 6.803408
-24.500000, -25.000000, 6.650323
-24.500000, -24.500000, 6.500827
-24.500000, -24.000000, 6.3549
-24.500000, -23.500000, 6.212522
-24.500000, -23.000000, 6.073677
-24.500000, -22.500000, 5.938344
-24.500000, -22.000000, 5.806505
-24.500000, -21.500000, 5.678142
-24.500000, -21.000000, 5.553235
-24.500000, -20.500000, 5.431765
-24.500000, -20.000000, 5.313711
-24.500000, -19.500000, 5.199055
-24.500000, -19.000000, 5.087776
-24.500000, -18.500000, 4.979852
-24.500000, -18.000000, 4.875261
-24.500000, -17.500000, 4.773983
-24.500000, -17.000000, 4.675994
-24.500000, -16.500000, 4.58127
-24.500000, -16.000000, 4.489787
-24.500000, -15.500000, 4.40152
-24.500000, -15.000000, 4.316443
-24.500000, -14.500000, 4.234529
-24.500000, -14.000000, 4.155752
-24.500000, -13.500000, 4.080082
-24.500000, -13.000000, 4.007491
-24.500000, -12.500000, 3.937949
-24.500000, -12.000000, 3.871427
-24.500000, -11.500000, 3.807893
-24.500000, -11.000000, 3.747317
-24.500000, -10.500000, 3.689667
-24.500000, -10.000000, 3.634913
-24.500000, -9.500000, 3.583024
-24.500000, -9.000000, 3.533968
-24.500000, -8.500000, 3.487716
-24.500000, -8.000000, 3.444239
-24.500000, -7.500000, 3.403509
-24.500000, -7.000000, 3.365498
-24.500000, -6.500000, 3.330183
-24.500000, -6.000000, 3.297539
-24.500000, -5.500000, 3.267544
-24.500000, -5.000000, 3.24018
-24.500000, -4.500000, 3.215428
-24.500000, -4.000000, 3.193273
-24.500000, -3.500000, 3.173704
-24.500000, -3.000000, 3.156707
-24.500000, -2.500000, 3.142277
-24.500000, -2.000000, 3.130405
-24.500000, -1.500000, 3.121089
-24.500000, -1.000000, 3.114326
-24.500000, -0.500000, 3.110117
-24.500000, 0.000000, 3.108463
-24.500000, 0.500000, 3.109369
-24.500000, 1.000000, 3.112842
-24.500000, 1.500000, 3.118888
-24.500000, 2.000000, 3.127518
-24.500000, 2.500000, 3.138743
-24.500000, 3.000000, 3.152576
-24.500000, 3.500000, 3.169033
-24.500000, 4.000000, 3.188129
-24.500000, 4.500000, 3.209882
-24.500000, 5.000000, 3.234312
-24.500000, 5.500000, 3.261438
-24.500000, 6.000000, 3.291282
-24.500000, 6.500000, 3.323866
-24.500000, 7.000000, 3.359212
-24.500000, 7.500000, 3.397345
-24.500000, 8.000000, 3.438288
-24.500000, 8.500000, 3.482065
-24.500000, 9.000000, 3.528702
-24.500000, 9.500000, 3.578223
-24.500000, 10.000000, 3.630654
-24.500000, 10.500000, 3.686018
-24.500000, 11.000000, 3.744341
-24.500000, 11.500000, 3.805647
-24.500000, 12.000000, 3.869961
-24.500000, 12.500000, 3.937306
-24.500000, 13.000000, 4.007706
-24.500000, 13.500000, 4.081185
-24.500000, 14.000000, 4.157764
-24.500000, 14.500000, 4.237467
-24.500000, 15.000000, 4.320315
-24.500000, 15.500000, 4.406331
-24.500000, 16.000000, 4.495535
-24.500000, 16.500000, 4.587947
-24.500000, 17.000000, 4.683589
-24.500000, 17.500000, 4.782481
-24.500000, 18.000000, 4.884642
-24.500000, 18.500000, 4.990091
-24.500000, 19.000000, 5.098849
-24.500000, 19.500000, 5.210933
-24.500000, 20.000000, 5.326362
-24.500000, 20.500000, 5.445156
-24.500000, 21.000000, 5.567332
-24.500000, 21.500000, 5.692909
-24.500000, 22.000000, 5.821905
-24.500000, 22.500000, 5.954339
-24.500000, 23.000000, 6.090229
-24.500000, 23.500000, 6.229593
-24.500000, 24.000000, 6.37245
-24.500000, 24.500000, 6.51882
-24.500000, 25.000000, 6.66872
-24.500000, 25.500000, 6.82217
-24.500000, 26.000000, 6.97919
-24.500000, 26.500000, 7.139799
-24.500000, 27.000000, 7.304018
-24.500000, 27.500000, 7.471867
-24.500000, 28.000000, 7.643367
-24.500000, 28.500000, 7.81854
-24.500000, 29.000000, 7.997408
-24.500000, 29.500000, 8.179992
-24.500000, 30.000000, 8.366317
-24.500000, 30.500000, 8.556405
-24.500000, 31.000000, 8.750282
-24.500000, 31.500000, 8.947972
-24.500000, 32.000000, 9.149501
-24.500000, 32.500000, 9.354896
-24.500000, 33.000000, 9.564183
-24.500000, 33.500000, 9.777391
-24.500000, 34.000000, 9.994549
-24.500000, 34.500000, 10.215687
-24.500000, 35.000000, 10.440835
-24.500000, 35.500000, 10.670026
-24.500000, 36.000000, 10.903292
-24.500000, 36.500000, 11.140666
-24.500000, 37.000000, 11.382185
-24.500000, 37.500000, 11.627883
-24.500000, 38.000000, 11.877799
-24.500000, 38.500000, 12.13197
-24.500000, 39.000000, 12.390437
-24.500000, 39.500000, 12.65324
-24.500000, 40.000000, 12.920423
-24.500000, 40.500000, 13.192027
-24.500000, 41.000000, 13.4681
-24.500000, 41.500000, 13.748688
-24.500000, 42.000000, 14.03384
-24.500000, 42.500000, 14.323605
-24.000000, -42.500000, 14.169345
-24.000000, -42.000000, 13.87964
-24.000000, -41.500000, 13.594542
-24.000000, -41.000000, 13.314001
-24.000000, -40.500000, 13.037971
-24.000000, -40.000000, 12.766404
-24.000000, -39.500000, 12.499257
-24.000000, -39.000000, 12.236487
-24.000000, -38.500000, 11.978052
-24.000000, -38.000000, 11.723913
-24.000000, -37.500000, 11.47403
-24.000000, -37.000000, 11.228367
-24.000000, -36.500000, 10.986887
-24.000000, -36.000000, 10.749554
-24.000000, -35.500000, 10.516337
-24.000000, -35.000000, 10.287201
-24.000000, -34.500000, 10.062115
-24.000000, -34.000000, 9.841049
-24.000000, -33.500000, 9.623973
-24.000000, -33.000000, 9.410859
-24.000000, -32.500000, 9.201679
-24.000000, -32.000000, 8.996407
-24.000000, -31.500000, 8.795016
-24.000000, -31.000000, 8.597481
-24.000000, -30.500000, 8.403778
-24.000000, -30.000000, 8.213884
-24.000000, -29.500000, 8.027776
-24.000000, -29.000000, 7.845431
-24.000000, -28.500000, 7.666827
-24.000000, -28.000000, 7.491944
-24.000000, -27.500000, 7.320761
-24.000000, -27.000000, 7.153258
-24.000000, -26.500000, 6.989416
-24.000000, -26.000000, 6.829214
-24.000000, -25.500000, 6.672634
-24.000000, -25.000000, 6.519657
-24.000000, -24.500000, 6.370266
-24.000000, -24.000000, 6.22444
-24.000000, -23.500000, 6.082163
-24.000000, -23.000000, 5.943416
-24.000000, -22.500000, 5.808181
-24.000000, -22.000000, 5.676439
-24.000000, -21.500000, 5.548173
-24.000000, -21.000000, 5.423363
-24.000000, -20.500000, 5.301991
-24.000000, -20.000000, 5.184038
-24.000000, -19.500000, 5.069483
-24.000000, -19.000000, 4.958308
-24.000000, -18.500000, 4.850491
-24.000000, -18.000000, 4.74601
-24.000000, -17.500000, 4.644845
-24.000000, -17.000000, 4.546973
-24.000000, -16.500000, 4.45237
-24.000000, -16.000000, 4.361012
-24.000000, -15.500000, 4.272874
-24.000000, -15.000000, 4.18793
-24.000000, -14.500000, 4.106154
-24.000000, -14.000000, 4.027518
-24.000000, -13.500000, 3.951993
-24.000000, -13.000000, 3.879551
-24.000000, -12.500000, 3.810161
-24.000000, -12.000000, 3.743792
-24.000000, -11.500000, 3.680414
-24.000000, -11.000000, 3.619995
-24.000000, -10.500000, 3.562502
-24.000000, -10.000000, 3.507904
-24.000000, -9.500000, 3.456168
-24.000000, -9.000000, 3.407264
-24.000000, -8.500000, 3.36116
-24.000000, -8.000000, 3.317826
-24.000000, -7.500000, 3.277232
-24.000000, -7.000000, 3.239352
-24.000000, -6.500000, 3.204159
-24.000000, -6.000000, 3.171628
-24.000000, -5.500000, 3.141738
-24.000000, -5.000000, 3.114468
-24.000000, -4.500000, 3.089799
-24.000000, -4.000000, 3.067718
-24.000000, -3.500000, 3.04821
-24.000000, -3.000000, 3.031264
-24.000000, -2.500000, 3.016872
-24.000000, -2.000000, 3.005029
-24.000000, -1.500000, 2.995729
-24.000000, -1.000000, 2.988971
-24.000000, -0.500000, 2.984756
-24.000000, 0.000000, 2.983086
-24.000000, 0.500000, 2.983966
-24.000000, 1.000000, 2.987401
-24.000000, 1.500000, 2.9934
-24.000000, 2.000000, 3.001973
-24.000000, 2.500000, 3.013131
-24.000000, 3.000000, 3.02689
-24.000000, 3.500000, 3.043263
-24.000000, 4.000000, 3.062268
-24.000000, 4.500000, 3.083924
-24.000000, 5.000000, 3.108249
-24.000000, 5.500000, 3.135264
-24.000000, 6.000000, 3.164992
-24.000000, 6.500000, 3.197455
-24.000000, 7.000000, 3.232677
-24.000000, 7.500000, 3.270682
-24.000000, 8.000000, 3.311495
-24.000000, 8.500000, 3.355141
-24.000000, 9.000000, 3.401645
-24.000000, 9.500000, 3.451033
-24.000000, 10.000000, 3.503329
-24.000000, 10.500000, 3.55856
-24.000000, 11.000000, 3.61675
-24.000000, 11.500000, 3.677925
-24.000000, 12.000000, 3.742109
-24.000000, 12.500000, 3.809325
-24.000000, 13.000000, 3.879599
-24.000000, 13.500000, 3.952953
-24.000000, 14.000000, 4.02941
-24.000000, 14.500000, 4.108993
-24.000000, 15.000000, 4.191723
-24.000000, 15.500000, 4.277622
-24.000000, 16.000000, 4.366712
-24.000000, 16.500000, 4.459012
-24.000000, 17.000000, 4.554544
-24.000000, 17.500000, 4.653326
-24.000000, 18.000000, 4.755379
-24.000000, 18.500000, 4.860722
-24.000000, 19.000000, 4.969373
-24.000000, 19.500000, 5.081351
-24.000000, 20.000000, 5.196674
-24.000000, 20.500000, 5.315362
-24.000000, 21.000000, 5.437431
-24.000000, 21.500000, 5.5629
-24.000000, 22.000000, 5.691788
-24.000000, 22.500000, 5.824111
-24.000000, 23.000000, 5.959888
-24.000000, 23.500000, 6.099138
-24.000000, 24.000000, 6.241877
-24.000000, 24.500000, 6.388126
-24.000000, 25.000000, 6.537902
-24.000000, 25.500000, 6.691224
-24.000000, 26.000000, 6.848112
-24.000000, 26.500000, 7.008584
-24.000000, 27.000000, 7.172661
-24.000000, 27.500000, 7.340363
-24.000000, 28.000000, 7.51171
-24.000000, 28.500000, 7.686724
-24.000000, 29.000000, 7.865427
-24.000000, 29.500000, 8.04784
-24.000000, 30.000000, 8.233986
-24.000000, 30.500000, 8.423889
-24.000000, 31.000000, 8.617572
-24.000000, 31.500000, 8.815061
-24.000000, 32.000000, 9.016381
-24.000000, 32.500000, 9.221558
-24.000000, 33.000000, 9.430618
-24.000000, 33.500000, 9.643591
-24.000000, 34.000000, 9.860504
-24.000000, 34.500000, 10.081387
-24.000000, 35.000000, 10.306271
-24.000000, 35.500000, 10.535187
-24.000000, 36.000000, 10.768168
-24.000000, 36.500000, 11.005246
-24.000000, 37.000000, 11.246458
-24.000000, 37.500000, 11.491837
-24.000000, 38.000000, 11.741423
-24.000000, 38.500000, 11.995252
-24.000000, 39.000000, 12.253364
-24.000000, 39.500000, 12.515801
-24.000000, 40.000000, 12.782603
-24.000000, 40.500000, 13.053815
-24.000000, 41.000000, 13.329481
-24.000000, 41.500000, 13.609649
-24.000000, 42.000000, 13.894366
-24.000000, 42.500000, 14.183681
-23.500000, -42.500000, 14.033591
-23.500000, -42.000000, 13.744316
-23.500000, -41.500000, 13.459634
-23.500000, -41.000000, 13.179494
-23.500000, -40.500000, 12.903851
-23.500000, -40.000000, 12.632657
-23.500000, -39.500000, 12.365869
-23.500000, -39.000000, 12.103445
-23.500000, -38.500000, 11.845343
-23.500000, -38.000000, 11.591524
-23.500000, -37.500000, 11.341948
-23.500000, -37.000000, 11.09658
-23.500000, -36.500000, 10.855383
-23.500000, -36.000000, 10.618322
-23.500000, -35.500000, 10.385365
-23.500000, -35.000000, 10.156478
-23.500000, -34.500000, 9.93163
-23.500000, -34.000000, 9.710792
-23.500000, -33.500000, 9.493934
-23.500000, -33.000000, 9.281028
-23.500000, -32.500000, 9.072046
-23.500000, -32.000000, 8.866962
-23.500000, -31.500000, 8.665751
-23.500000, -31.000000, 8.468388
-23.500000, -30.500000, 8.274848
-23.500000, -30.000000, 8.085109
-23.500000, -29.500000, 7.899148
-23.500000, -29.000000, 7.716943
-23.500000, -28.500000, 7.538473
-23.500000, -28.000000, 7.363717
-23.500000, -27.500000, 7.192656
-23.500000, -27.000000, 7.025269
-23.500000, -26.500000, 6.861537
-23.500000, -26.000000, 6.701441
-23.500000, -25.500000, 6.544963
-23.500000, -25.000000, 6.392084
-23.500000, -24.500000, 6.242788
-23.500000, -24.000000, 6.097055
-23.500000, -23.500000, 5.954867
-23.500000, -23.000000, 5.816209
-23.500000, -22.500000, 5.681061
-23.500000, -22.000000, 5.549406
-23.500000, -21.500000, 5.421226
-23.500000, -21.000000, 5.296503
-23.500000, -20.500000, 5.175219
-23.500000, -20.000000, 5.057355
-23.500000, -19.500000, 4.942892
-23.500000, -19.000000, 4.83181
-23.500000, -18.500000, 4.724089
-23.500000, -18.000000, 4.619708
-23.500000, -17.500000, 4.518646
-23.500000, -17.000000, 4.42088
-23.500000, -16.500000, 4.326388
-23.500000, -16.000000, 4.235146
-23.500000, -15.500000, 4.147128
-23.500000, -15.000000, 4.062309
-23.500000, -14.500000, 3.980661
-23.500000, -14.000000, 3.902159
-23.500000, -13.500000, 3.826771
-23.500000, -13.000000, 3.75447
-23.500000, -12.500000, 3.685225
-23.500000, -12.000000, 3.619004
-23.500000, -11.500000, 3.555776
-23.500000, -11.000000, 3.495508
-23.500000, -10.500000, 3.438167
-23.500000, -10.000000, 3.38372
-23.500000, -9.500000, 3.332135
-23.500000, -9.000000, 3.283378
-23.500000, -8.500000, 3.237419
-23.500000, -8.000000, 3.194224
-23.500000, -7.500000, 3.153765
-23.500000, -7.000000, 3.116012
-23.500000, -6.500000, 3.080938
-23.500000, -6.000000, 3.048519
-23.500000, -5.500000, 3.01873
-23.500000, -5.000000, 2.991552
-23.500000, -4.500000, 2.966965
-23.500000, -4.000000, 2.944954
-23.500000, -3.500000, 2.925506
-23.500000, -3.000000, 2.908609
-23.500000, -2.500000, 2.894255
-23.500000, -2.000000, 2.882437
-23.500000, -1.500000, 2.873153
-23.500000, -1.000000, 2.866401
-23.500000, -0.500000, 2.86218
-23.500000, 0.000000, 2.860493
-23.500000, 0.500000, 2.861346
-23.500000, 1.000000, 2.864744
-23.500000, 1.500000, 2.870696
-23.500000, 2.000000, 2.879213
-23.500000, 2.500000, 2.890307
-23.500000, 3.000000, 2.903992
-23.500000, 3.500000, 2.920284
-23.500000, 4.000000, 2.939199
-23.500000, 4.500000, 2.960758
-23.500000, 5.000000, 2.984981
-23.500000, 5.500000, 3.011888
-23.500000, 6.000000, 3.041502
-23.500000, 6.500000, 3.073848
-23.500000, 7.000000, 3.108949
-23.500000, 7.500000, 3.14683
-23.500000, 8.000000, 3.187517
-23.500000, 8.500000, 3.231035
-23.500000, 9.000000, 3.277411
-23.500000, 9.500000, 3.32667
-23.500000, 10.000000, 3.378838
-23.500000, 10.500000, 3.433941
-23.500000, 11.000000, 3.492004
-23.500000, 11.500000, 3.553054
-23.500000, 12.000000, 3.617114
-23.500000, 12.500000, 3.684209
-23.500000, 13.000000, 3.754363
-23.500000, 13.500000, 3.8276
-23.500000, 14.000000, 3.903942
-23.500000, 14.500000, 3.983412
-23.500000, 15.000000, 4.066032
-23.500000, 15.500000, 4.151824
-23.500000, 16.000000, 4.240808
-23.500000, 16.500000, 4.333004
-23.500000, 17.000000, 4.428434
-23.500000, 17.500000, 4.527116
-23.500000, 18.000000, 4.62907
-23.500000, 18.500000, 4.734314
-23.500000, 19.000000, 4.842868
-23.500000, 19.500000, 4.954749
-23.500000, 20.000000, 5.069976
-23.500000, 20.500000, 5.188566
-23.500000, 21.000000, 5.310538
-23.500000, 21.500000, 5.435909
-23.500000, 22.000000, 5.564696
-23.500000, 22.500000, 5.696918
-23.500000, 23.000000, 5.832592
-23.500000, 23.500000, 5.971735
-23.500000, 24.000000, 6.114366
-23.500000, 24.500000, 6.260502
-23.500000, 25.000000, 6.410162
-23.500000, 25.500000, 6.563365
-23.500000, 26.000000, 6.720128
-23.500000, 26.500000, 6.880472
-23.500000, 27.000000, 7.044416
-23.500000, 27.500000, 7.211979
-23.500000, 28.000000, 7.383181
-23.500000, 28.500000, 7.558045
-23.500000, 29.000000, 7.73659
-23.500000, 29.500000, 7.91884
-23.500000, 30.000000, 8.104815
-23.500000, 30.500000, 8.29454
-23.500000, 31.000000, 8.488038
-23.500000, 31.500000, 8.685334
-23.500000, 32.000000, 8.886452
-23.500000, 32.500000, 9.091419
-23.500000, 33.000000, 9.300261
-23.500000, 33.500000, 9.513005
-23.500000, 34.000000, 9.729681
-23.500000, 34.500000, 9.950318
-23.500000, 35.000000, 10.174945
-23.500000, 35.500000, 10.403593
-23.500000, 36.000000, 10.636297
-23.500000, 36.500000, 10.873087
-23.500000, 37.000000, 11.113999
-23.500000, 37.500000, 11.359069
-23.500000, 38.000000, 11.608332
-23.500000, 38.500000, 11.861828
-23.500000, 39.000000, 12.119594
-23.500000, 39.500000, 12.381672
-23.500000, 40.000000, 12.648103
-23.500000, 40.500000, 12.918931
-23.500000, 41.000000, 13.1942
-23.500000, 41.500000, 13.473956
-23.500000, 42.000000, 13.758248
-23.500000, 42.500000, 14.047125
-23.000000, -42.500000, 13.901187
-23.000000, -42.000000, 13.612334
-23.000000, -41.500000, 13.328059
-23.000000, -41.000000, 13.048312
-23.000000, -40.500000, 12.773048
-23.000000, -40.000000, 12.502219
-23.000000, -39.500000, 12.235783
-23.000000, -39.000000, 11.973697
-23.000000, -38.500000, 11.715921
-23.000000, -38.000000, 11.462414
-23.000000, -37.500000, 11.213139
-23.000000, -37.000000, 10.968059
-23.000000, -36.500000, 10.727138
-23.000000, -36.000000, 10.490342
-23.000000, -35.500000, 10.257638
-23.000000, -35.000000, 10.028994
-23.000000, -34.500000, 9.804378
-23.000000, -34.000000, 9.58376
-23.000000, -33.500000, 9.367113
-23.000000, -33.000000, 9.154407
-23.000000, -32.500000, 8.945617
-23.000000, -32.000000, 8.740715
-23.000000, -31.500000, 8.539676
-23.000000, -31.000000, 8.342477
-23.000000, -30.500000, 8.149093
-23.000000, -30.000000, 7.959501
-23.000000, -29.500000, 7.77368
-23.000000, -29.000000, 7.591608
